ply
    		format ascii 1.0
    		element vertex 2048
    		property float x
    		property float y
    		property float z
    		property uchar red
    		property uchar green
    		property uchar blue
    		end_header
-0.231251 -0.249870 -0.054163 255 255 255
-0.151361 -0.041766 -0.199717 255 255 255
-0.045578 -0.151758 0.247194 255 255 255
-0.109163 -0.249830 -0.194117 255 255 255
-0.092343 0.069200 0.233226 255 255 255
-0.006087 -0.018328 0.248507 255 255 255
0.245481 0.013149 -0.043045 255 255 255
0.084404 -0.248759 0.156062 255 255 255
0.133783 -0.250000 0.023485 255 255 255
0.309135 0.132101 0.162008 255 255 255
0.501627 0.224997 0.105158 255 255 255
-0.063862 0.012621 -0.239515 255 255 255
0.100789 -0.250000 -0.016377 255 255 255
-0.248973 0.231364 -0.020705 255 255 255
-0.128458 -0.120544 0.213734 255 255 255
0.418896 0.098411 0.289512 255 255 255
-0.036374 -0.250000 0.076755 255 255 255
-0.186570 -0.030542 0.164626 255 255 255
0.249470 0.009872 0.012469 255 255 255
0.403724 0.212908 0.107078 255 255 255
0.146096 0.219163 0.201118 255 255 255
0.157742 -0.251719 -0.019189 255 255 255
-0.167995 -0.133955 -0.185244 255 255 255
0.162399 0.208541 0.191643 255 255 255
-0.208699 0.177901 -0.137897 255 255 255
-0.248993 -0.088008 0.033808 255 255 255
0.135534 0.073479 0.211051 255 255 255
0.047428 0.112090 0.243643 255 255 255
0.240674 -0.245588 -0.064303 255 255 255
0.169588 0.093499 -0.184744 255 255 255
-0.126777 -0.250003 0.000952 255 255 255
0.239308 -0.059676 0.078218 255 255 255
0.244709 0.073082 -0.057838 255 255 255
0.113279 0.249999 -0.110666 255 255 255
0.133456 0.250000 0.058420 255 255 255
-0.174049 -0.246392 0.172417 255 255 255
-0.091960 -0.248294 -0.238824 255 255 255
0.064695 -0.250002 -0.213261 255 255 255
0.231971 -0.072844 0.095552 255 255 255
-0.217640 -0.239488 -0.121769 255 255 255
-0.055938 -0.119060 -0.243905 255 255 255
0.178976 0.068590 0.173454 255 255 255
-0.092342 0.058976 -0.232292 255 255 255
0.235164 0.161260 0.123892 255 255 255
-0.206207 0.159539 0.138414 255 255 255
0.326539 0.054032 0.323509 255 255 255
0.037941 0.250000 0.042858 255 255 255
0.071125 -0.250002 0.041714 255 255 255
-0.182658 0.042179 0.169617 255 255 255
0.116902 0.070335 -0.218122 255 255 255
-0.247647 0.119005 -0.042813 255 255 255
-0.244913 -0.019241 -0.054732 255 255 255
0.008749 -0.249999 0.047741 255 255 255
-0.148052 0.250001 -0.096446 255 255 255
-0.038901 0.155697 0.245979 255 255 255
0.047438 -0.250055 -0.157942 255 255 255
0.471607 0.233808 0.101075 255 255 255
-0.053205 0.250019 0.169306 255 255 255
-0.029693 0.054376 -0.249889 255 255 255
0.017484 0.249939 -0.075163 255 255 255
-0.112900 0.070344 -0.222303 255 255 255
-0.075427 0.078635 0.237085 255 255 255
0.071177 -0.232072 -0.238797 255 255 255
-0.190370 0.064609 -0.164749 255 255 255
-0.053649 0.252455 0.187887 255 255 255
-0.216129 -0.125298 0.128557 255 255 255
-0.189946 -0.250001 -0.075674 255 255 255
-0.095245 0.250003 0.149268 255 255 255
-0.234995 0.075821 0.083397 255 255 255
-0.022401 0.221370 -0.250320 255 255 255
0.083110 -0.152508 0.350380 255 255 255
-0.185647 0.023340 0.164230 255 255 255
-0.246513 -0.007499 0.018186 255 255 255
0.163657 0.008936 0.219261 255 255 255
0.233789 0.251174 -0.005528 255 255 255
-0.225959 0.062835 0.107222 255 255 255
-0.247906 0.202287 -0.034166 255 255 255
0.078896 -0.246602 0.227260 255 255 255
-0.147096 0.250851 -0.138116 255 255 255
-0.210458 0.233770 0.139500 255 255 255
0.124530 -0.249954 -0.037702 255 255 255
-0.121593 -0.207121 0.218789 255 255 255
0.012466 -0.255089 0.228430 255 255 255
-0.098258 -0.249908 0.007855 255 255 255
0.070937 -0.249910 0.113277 255 255 255
0.158034 -0.250001 -0.022112 255 255 255
-0.081144 -0.134897 0.235392 255 255 255
-0.231428 0.243354 0.092225 255 255 255
0.352256 0.078534 0.290613 255 255 255
-0.186005 -0.171598 0.160646 255 255 255
0.013042 0.196611 0.249103 255 255 255
0.233192 -0.189098 0.090323 255 255 255
0.094977 0.249999 0.083408 255 255 255
0.056885 -0.250001 -0.021493 255 255 255
-0.242728 -0.230159 0.049023 255 255 255
0.067694 0.250001 0.154208 255 255 255
-0.052650 0.109035 -0.243414 255 255 255
0.200454 0.019637 -0.148196 255 255 255
-0.144807 -0.135086 0.203613 255 255 255
0.100556 -0.159450 -0.232637 255 255 255
-0.247741 0.035283 0.043257 255 255 255
0.146099 0.058005 -0.203472 255 255 255
0.069594 -0.029451 -0.238855 255 255 255
-0.061502 -0.227974 0.494813 255 255 255
-0.115461 0.249443 -0.211545 255 255 255
0.040938 -0.250588 0.161758 255 255 255
0.124446 0.250498 0.169325 255 255 255
0.132334 -0.249999 0.164424 255 255 255
-0.034269 -0.169529 0.246615 255 255 255
-0.231835 0.115054 -0.094677 255 255 255
-0.237501 -0.080327 0.083921 255 255 255
-0.238801 0.252710 0.057773 255 255 255
0.254440 -0.024590 0.362404 255 255 255
-0.241153 -0.222852 -0.068707 255 255 255
0.153264 -0.060370 -0.194525 255 255 255
0.104466 -0.249733 0.057939 255 255 255
0.202089 -0.194545 0.149919 255 255 255
-0.055190 0.250000 -0.004368 255 255 255
-0.154484 0.101219 0.193865 255 255 255
-0.170363 -0.250914 -0.140719 255 255 255
0.130927 0.118587 0.220101 255 255 255
-0.104139 -0.002612 0.224656 255 255 255
0.152340 0.004899 -0.200134 255 255 255
-0.171055 0.205802 -0.180023 255 255 255
-0.249476 -0.069408 -0.032024 255 255 255
-0.226461 0.176592 -0.103727 255 255 255
0.156048 -0.261991 -0.112262 255 255 255
-0.204984 -0.250283 0.000138 255 255 255
0.056773 -0.079252 -0.244484 255 255 255
-0.198103 -0.246357 -0.152998 255 255 255
0.288549 0.053221 0.342460 255 255 255
-0.172353 0.157796 -0.178911 255 255 255
0.139297 0.031084 -0.211783 255 255 255
-0.215055 -0.250015 -0.011370 255 255 255
-0.094970 -0.249980 -0.108175 255 255 255
0.221796 -0.249067 0.049992 255 255 255
0.163019 -0.249646 0.169547 255 255 255
-0.159744 0.244114 -0.195741 255 255 255
0.156100 0.078238 0.201137 255 255 255
-0.136938 0.249687 -0.168186 255 255 255
-0.063816 0.134280 0.244782 255 255 255
0.239409 0.034736 -0.075570 255 255 255
0.022074 -0.250000 0.045766 255 255 255
0.093147 0.101628 0.230653 255 255 255
0.051553 0.249818 0.180428 255 255 255
-0.129575 -0.133704 0.210471 255 255 255
-0.084781 -0.250003 0.052097 255 255 255
0.056235 -0.019091 0.242619 255 255 255
-0.017128 -0.030001 -0.246707 255 255 255
0.264743 -0.017191 0.421840 255 255 255
-0.247760 0.099570 0.032438 255 255 255
-0.225621 0.110795 0.108225 255 255 255
0.141086 -0.062083 0.341962 255 255 255
0.101534 0.249688 -0.193094 255 255 255
0.012240 0.249998 0.025122 255 255 255
-0.244026 0.204124 -0.052553 255 255 255
0.225900 -0.127140 0.103881 255 255 255
0.037460 0.206416 -0.247581 255 255 255
-0.018804 -0.254671 0.030227 255 255 255
0.213560 -0.250122 -0.021251 255 255 255
0.009583 -0.249947 0.124667 255 255 255
0.228440 -0.103571 0.098085 255 255 255
0.162233 0.037829 0.220682 255 255 255
-0.050358 0.250096 -0.194012 255 255 255
0.230852 -0.244078 0.095640 255 255 255
-0.242659 -0.134686 0.067961 255 255 255
0.122999 -0.113867 0.505835 255 255 255
-0.242802 -0.144949 -0.060063 255 255 255
0.010727 0.250000 0.100375 255 255 255
-0.203306 0.045708 0.144410 255 255 255
0.107484 -0.249407 0.210032 255 255 255
-0.082102 -0.110833 0.236359 255 255 255
-0.042770 0.247050 -0.246609 255 255 255
-0.211717 -0.170205 -0.132782 255 255 255
0.111325 -0.137920 0.502458 255 255 255
-0.164492 0.197623 0.185459 255 255 255
0.240662 -0.188354 0.071167 255 255 255
-0.006721 -0.017617 0.250788 255 255 255
0.040694 0.249999 -0.145659 255 255 255
0.138681 0.249287 -0.013385 255 255 255
-0.246476 -0.177483 0.040232 255 255 255
-0.213425 0.259950 -0.045503 255 255 255
0.212306 -0.073946 0.133543 255 255 255
-0.160012 0.149686 0.194043 255 255 255
-0.134142 0.250001 0.030227 255 255 255
-0.054493 -0.249694 -0.212462 255 255 255
0.165241 -0.076778 -0.188418 255 255 255
-0.246230 0.204133 0.017732 255 255 255
-0.015619 -0.097768 -0.251069 255 255 255
0.224419 -0.131843 0.108719 255 255 255
0.090275 -0.249818 -0.176638 255 255 255
0.155580 0.245253 0.195590 255 255 255
0.124162 0.250001 0.074498 255 255 255
-0.132688 0.218415 -0.213656 255 255 255
-0.197142 0.249375 -0.095818 255 255 255
0.094267 -0.250211 -0.026567 255 255 255
-0.119146 -0.189226 -0.220952 255 255 255
-0.025997 -0.249996 0.162164 255 255 255
-0.188411 -0.046828 0.167240 255 255 255
-0.184419 -0.018671 -0.168459 255 255 255
-0.020676 0.045138 0.249988 255 255 255
0.157039 -0.248627 -0.110062 255 255 255
-0.191304 -0.018179 0.162925 255 255 255
-0.024892 -0.250000 0.068493 255 255 255
0.083047 -0.250004 -0.175154 255 255 255
-0.247355 0.132812 -0.011188 255 255 255
-0.147091 -0.250256 0.040944 255 255 255
-0.037092 -0.091377 -0.250293 255 255 255
0.247893 0.116102 0.018482 255 255 255
-0.251339 -0.172963 -0.012564 255 255 255
0.013091 -0.218201 0.248877 255 255 255
-0.230790 -0.074347 -0.096929 255 255 255
-0.001556 0.250027 -0.149653 255 255 255
0.037704 0.249996 -0.155709 255 255 255
0.207908 0.055330 0.140456 255 255 255
-0.190258 0.100759 -0.161734 255 255 255
-0.112287 -0.067178 0.224541 255 255 255
-0.095076 0.249924 0.078415 255 255 255
-0.101751 -0.004315 -0.230714 255 255 255
0.234973 -0.014682 0.331212 255 255 255
0.217653 -0.180591 -0.122869 255 255 255
0.073738 -0.037866 -0.239300 255 255 255
-0.212845 -0.248812 0.114837 255 255 255
0.240284 0.063807 0.074550 255 255 255
0.221031 -0.220261 0.115831 255 255 255
0.038440 -0.250000 0.040977 255 255 255
-0.248530 -0.165189 -0.033393 255 255 255
-0.172493 -0.249995 -0.027571 255 255 255
-0.185852 0.064648 -0.172155 255 255 255
0.003101 -0.229686 -0.248270 255 255 255
0.039131 -0.046378 0.245093 255 255 255
0.117794 -0.249999 -0.118884 255 255 255
-0.070528 0.031079 0.241691 255 255 255
0.242344 -0.227257 0.057194 255 255 255
0.144051 0.068318 0.208205 255 255 255
0.249832 -0.113360 0.010513 255 255 255
-0.170989 0.250303 0.173257 255 255 255
-0.194117 0.255886 0.140427 255 255 255
0.002746 0.104095 0.251837 255 255 255
0.143311 0.250370 -0.005158 255 255 255
0.244871 0.046479 0.293055 255 255 255
0.130514 0.015358 0.210379 255 255 255
0.190051 -0.205785 -0.162178 255 255 255
0.174122 0.163333 -0.183177 255 255 255
-0.195328 0.248247 0.012971 255 255 255
0.234890 0.246843 -0.009557 255 255 255
0.213367 0.178952 -0.132246 255 255 255
0.086905 -0.214001 0.235872 255 255 255
0.170055 0.159156 -0.181045 255 255 255
0.229067 -0.250520 -0.093241 255 255 255
0.105954 0.008886 0.226414 255 255 255
-0.079115 0.250000 -0.110930 255 255 255
-0.088860 -0.258376 0.316214 255 255 255
0.023005 -0.169913 0.248054 255 255 255
-0.157021 -0.250003 -0.067655 255 255 255
-0.010553 -0.199692 0.443627 255 255 255
0.073302 -0.043062 -0.238658 255 255 255
-0.033063 -0.085361 0.246670 255 255 255
0.047599 0.249998 -0.004736 255 255 255
0.111407 0.090200 -0.224205 255 255 255
0.204442 0.249307 -0.142891 255 255 255
0.009903 0.249998 -0.162384 255 255 255
-0.228549 -0.035999 0.105620 255 255 255
-0.024479 0.120125 -0.247224 255 255 255
-0.213653 0.220665 0.130172 255 255 255
0.226549 -0.043388 0.106398 255 255 255
-0.160248 -0.033546 -0.193518 255 255 255
0.236926 0.018185 -0.076048 255 255 255
0.067142 -0.249868 -0.121246 255 255 255
0.156999 -0.170661 -0.195717 255 255 255
0.246422 0.177774 -0.036744 255 255 255
0.190801 -0.233453 0.160616 255 255 255
-0.085711 -0.012724 0.234098 255 255 255
0.244039 -0.180420 -0.049502 255 255 255
0.014060 -0.249795 -0.073601 255 255 255
0.119443 0.182625 0.219105 255 255 255
0.146226 -0.154467 -0.203746 255 255 255
0.168875 -0.028676 0.284656 255 255 255
0.220602 -0.046042 -0.118624 255 255 255
-0.040706 0.000061 -0.245002 255 255 255
-0.235469 0.022607 0.083115 255 255 255
0.180207 0.051556 0.294136 255 255 255
0.215415 0.110917 -0.130146 255 255 255
0.036785 0.071613 -0.248349 255 255 255
-0.157096 0.241300 0.197331 255 255 255
-0.078613 0.240058 0.236541 255 255 255
-0.039451 -0.001575 0.248030 255 255 255
0.285201 -0.019199 0.387643 255 255 255
-0.247363 -0.025627 -0.041294 255 255 255
0.024561 0.047807 -0.249921 255 255 255
0.127978 -0.249990 0.010307 255 255 255
0.313445 0.208782 0.135243 255 255 255
-0.144914 0.248750 0.170806 255 255 255
-0.190103 0.238180 -0.160860 255 255 255
-0.029038 -0.217462 0.256339 255 255 255
0.245394 0.194862 0.054375 255 255 255
-0.185208 -0.250329 0.061449 255 255 255
0.226787 0.011079 -0.109046 255 255 255
0.244189 0.095002 0.191940 255 255 255
0.030612 -0.250230 -0.176278 255 255 255
0.042530 0.044276 0.248160 255 255 255
0.148640 -0.014765 0.200880 255 255 255
0.050712 0.250380 -0.216380 255 255 255
0.250220 0.037000 -0.030694 255 255 255
0.178266 0.250342 0.101987 255 255 255
0.003834 0.250002 -0.050169 255 255 255
-0.250269 -0.092786 0.010162 255 255 255
-0.250189 0.135425 0.010549 255 255 255
-0.129548 0.250733 -0.039553 255 255 255
0.249563 0.073788 0.033946 255 255 255
-0.048426 -0.249809 0.227707 255 255 255
0.044837 -0.156899 -0.249907 255 255 255
0.206668 -0.249070 -0.015375 255 255 255
0.052958 -0.140392 0.348622 255 255 255
0.370284 0.242316 0.096341 255 255 255
-0.229092 -0.002099 0.105045 255 255 255
-0.035338 -0.250024 -0.059122 255 255 255
0.107538 -0.073941 0.282834 255 255 255
0.189787 0.120195 0.162333 255 255 255
0.340132 0.079745 0.246889 255 255 255
0.059709 -0.043470 0.244331 255 255 255
-0.223753 -0.206081 0.108428 255 255 255
0.000565 0.249751 0.195141 255 255 255
0.200435 -0.006413 -0.147839 255 255 255
0.110152 0.250000 -0.094140 255 255 255
-0.226661 -0.248146 -0.046676 255 255 255
0.025024 0.250964 -0.091520 255 255 255
0.248924 0.048612 0.036113 255 255 255
0.148200 -0.250019 0.091565 255 255 255
-0.246159 -0.018220 0.058144 255 255 255
0.236909 0.135643 -0.080842 255 255 255
-0.151599 0.099882 0.196188 255 255 255
0.130818 -0.168116 0.213258 255 255 255
-0.067874 0.001350 -0.240345 255 255 255
-0.199704 0.239488 -0.148459 255 255 255
0.319547 0.180436 0.197684 255 255 255
-0.062961 0.114084 0.242859 255 255 255
0.241772 0.050309 -0.061440 255 255 255
-0.132942 -0.239644 -0.217755 255 255 255
-0.152646 -0.219342 0.195112 255 255 255
0.088768 0.099197 -0.233726 255 255 255
0.249187 -0.030539 0.007256 255 255 255
-0.042640 -0.250003 0.086016 255 255 255
-0.235784 -0.250702 -0.061072 255 255 255
0.242785 0.250037 0.011618 255 255 255
0.168641 -0.215882 -0.186029 255 255 255
0.219610 -0.001327 -0.121673 255 255 255
0.155811 0.184733 -0.192924 255 255 255
0.004539 -0.250002 -0.043424 255 255 255
-0.050868 0.249996 0.018970 255 255 255
0.063287 -0.249994 -0.080378 255 255 255
0.094179 0.249355 -0.128324 255 255 255
-0.037793 -0.048396 -0.248553 255 255 255
0.152521 0.097534 0.208657 255 255 255
0.231363 0.097291 -0.091795 255 255 255
-0.147988 0.213381 0.203760 255 255 255
-0.250237 0.070074 -0.019201 255 255 255
-0.064644 -0.249878 0.208571 255 255 255
0.245572 0.215653 -0.042987 255 255 255
-0.182301 0.225890 0.168930 255 255 255
-0.009923 -0.117785 0.251957 255 255 255
-0.234403 0.184465 0.089593 255 255 255
0.209137 0.241647 0.140024 255 255 255
-0.044897 -0.064575 0.250395 255 255 255
0.071513 0.250134 0.222626 255 255 255
-0.088235 0.034301 -0.233171 255 255 255
-0.005563 0.250002 0.037903 255 255 255
-0.029849 0.186953 -0.251119 255 255 255
0.249544 -0.066343 -0.005198 255 255 255
0.213239 -0.113745 -0.135132 255 255 255
0.179268 -0.079317 0.174651 255 255 255
0.241591 0.136870 0.198754 255 255 255
-0.177480 0.141864 -0.179062 255 255 255
-0.055008 0.249997 0.148216 255 255 255
0.241876 0.240000 0.065813 255 255 255
0.111334 0.183126 -0.226858 255 255 255
-0.045148 -0.249755 -0.151578 255 255 255
-0.250121 0.077509 -0.009351 255 255 255
-0.029141 0.118519 0.251501 255 255 255
-0.106787 -0.250242 -0.188288 255 255 255
0.177934 0.249967 -0.109946 255 255 255
0.141482 0.032345 0.247358 255 255 255
0.125425 -0.229859 -0.215509 255 255 255
-0.193203 0.024237 -0.162050 255 255 255
-0.216416 0.055103 0.124765 255 255 255
0.075346 0.253046 -0.239352 255 255 255
0.248916 -0.155897 -0.019182 255 255 255
0.030627 -0.250426 -0.204327 255 255 255
-0.035502 0.235761 0.250858 255 255 255
0.182211 0.250020 0.075148 255 255 255
-0.175477 -0.249578 0.150852 255 255 255
0.005920 0.248954 -0.239091 255 255 255
0.088679 0.247554 -0.235006 255 255 255
0.028219 0.250001 0.026075 255 255 255
0.078156 0.174252 0.239172 255 255 255
0.197033 0.177687 0.150691 255 255 255
-0.112842 0.249958 0.069978 255 255 255
-0.071803 -0.171740 -0.244207 255 255 255
-0.153174 0.250239 -0.021004 255 255 255
0.209856 0.084326 -0.136226 255 255 255
0.043627 0.249877 -0.176872 255 255 255
0.098819 -0.062420 -0.229672 255 255 255
-0.183455 0.238987 0.166677 255 255 255
-0.121520 -0.098893 0.220755 255 255 255
-0.205777 0.087769 -0.132395 255 255 255
0.227563 0.082089 -0.109160 255 255 255
0.143431 0.164579 -0.206134 255 255 255
0.207827 -0.027580 0.141219 255 255 255
-0.133449 0.250005 0.041860 255 255 255
-0.007499 0.250005 0.080373 255 255 255
0.118179 -0.249838 -0.009979 255 255 255
-0.135228 0.249953 0.128350 255 255 255
0.464375 0.194807 0.128631 255 255 255
-0.106716 0.108345 0.224569 255 255 255
0.004711 0.246509 0.244201 255 255 255
0.154860 -0.147138 -0.196916 255 255 255
-0.030054 -0.249999 0.058552 255 255 255
0.221707 0.123741 0.112747 255 255 255
0.084668 -0.092181 0.272810 255 255 255
-0.224567 -0.101139 -0.110990 255 255 255
-0.168098 0.250842 0.139521 255 255 255
-0.230595 -0.199032 -0.104463 255 255 255
0.012149 -0.249920 0.222850 255 255 255
0.246415 0.102410 0.041717 255 255 255
0.250165 0.226811 -0.003561 255 255 255
0.140171 0.249998 -0.040327 255 255 255
-0.167753 -0.249558 -0.113911 255 255 255
0.124904 -0.043975 0.222187 255 255 255
0.087496 -0.253334 0.026504 255 255 255
-0.103177 0.124893 -0.231347 255 255 255
-0.203591 -0.189398 0.141295 255 255 255
-0.191647 0.137635 0.162365 255 255 255
-0.168886 0.250106 -0.070868 255 255 255
0.015054 -0.003728 0.250455 255 255 255
-0.233035 0.210158 0.088066 255 255 255
-0.088192 -0.252780 0.164564 255 255 255
-0.047915 0.135319 0.243988 255 255 255
-0.250907 0.019448 -0.020109 255 255 255
-0.238269 -0.242476 -0.078652 255 255 255
0.028141 0.250177 -0.074362 255 255 255
0.050624 0.023388 -0.245428 255 255 255
-0.197603 0.058159 -0.152178 255 255 255
-0.082535 -0.250000 -0.129819 255 255 255
0.184862 -0.191294 -0.169429 255 255 255
0.173199 0.249175 0.172808 255 255 255
0.171973 -0.249955 0.010489 255 255 255
-0.239639 -0.250098 0.010047 255 255 255
-0.138668 0.249965 0.001212 255 255 255
0.208933 -0.249247 0.117259 255 255 255
0.232930 0.196619 -0.082752 255 255 255
0.141032 0.250064 0.206133 255 255 255
0.029399 -0.250002 -0.019906 255 255 255
-0.145667 0.129579 -0.203341 255 255 255
-0.006534 -0.250177 -0.045615 255 255 255
0.157717 -0.248980 0.185911 255 255 255
-0.032846 0.250026 0.108749 255 255 255
0.059505 -0.080012 -0.242538 255 255 255
0.203269 0.162227 0.154789 255 255 255
0.054162 0.244586 -0.240482 255 255 255
0.036547 -0.131621 0.251278 255 255 255
-0.209798 -0.052795 0.137003 255 255 255
-0.190406 0.049166 0.157354 255 255 255
0.080273 0.249562 -0.118899 255 255 255
0.042893 -0.156169 0.273452 255 255 255
-0.105654 0.172442 0.228688 255 255 255
0.142189 0.171697 0.203986 255 255 255
-0.028017 0.249998 -0.161069 255 255 255
0.110801 0.113983 -0.223355 255 255 255
-0.149255 -0.250471 0.091554 255 255 255
-0.027716 0.250479 -0.210340 255 255 255
0.239872 0.155230 0.064327 255 255 255
-0.096835 0.008305 0.235114 255 255 255
-0.099112 -0.250001 0.051895 255 255 255
-0.036626 -0.250020 -0.233449 255 255 255
-0.208991 -0.242730 -0.124522 255 255 255
-0.115441 0.250237 0.078018 255 255 255
0.230048 -0.187424 -0.094881 255 255 255
-0.172634 -0.132028 -0.183363 255 255 255
-0.011929 -0.249699 -0.209209 255 255 255
0.417863 0.184162 0.150379 255 255 255
0.026474 -0.250103 0.160080 255 255 255
-0.055544 -0.247711 -0.236727 255 255 255
-0.184751 0.216806 -0.168208 255 255 255
0.190395 -0.250280 -0.101585 255 255 255
-0.189071 0.260795 0.004612 255 255 255
-0.107007 -0.188749 0.226017 255 255 255
0.176658 0.196983 0.176743 255 255 255
0.252659 -0.014806 0.442060 255 255 255
-0.013442 -0.181166 0.365063 255 255 255
-0.244043 0.248715 -0.027604 255 255 255
0.095315 -0.250001 0.089148 255 255 255
0.173086 -0.249650 0.163525 255 255 255
0.090232 0.194305 -0.231735 255 255 255
-0.194213 0.144524 0.155472 255 255 255
0.186142 -0.250001 -0.097778 255 255 255
0.006002 -0.141302 0.268198 255 255 255
-0.138046 -0.150784 -0.215395 255 255 255
0.057499 0.250002 -0.097350 255 255 255
0.131878 -0.011715 0.264480 255 255 255
0.341604 0.114843 0.241708 255 255 255
0.024064 -0.259160 0.067715 255 255 255
-0.071926 0.250221 -0.173580 255 255 255
0.001619 -0.046663 -0.251612 255 255 255
0.057794 0.249998 -0.063892 255 255 255
0.158157 -0.249998 -0.150473 255 255 255
-0.000419 0.250051 -0.132997 255 255 255
-0.055289 0.250004 0.173080 255 255 255
-0.129147 -0.250103 -0.162116 255 255 255
-0.171056 -0.250506 -0.134717 255 255 255
-0.248439 0.039644 -0.024488 255 255 255
0.250774 0.220245 0.019003 255 255 255
-0.249620 -0.112757 0.029544 255 255 255
0.124179 -0.157815 -0.214489 255 255 255
0.145795 0.249922 -0.143906 255 255 255
-0.177854 -0.106053 0.176362 255 255 255
-0.013674 0.256308 0.081531 255 255 255
-0.098685 -0.250001 0.025324 255 255 255
0.141481 -0.184754 0.206445 255 255 255
0.110416 -0.249936 -0.171733 255 255 255
0.172995 -0.054512 0.184272 255 255 255
0.199858 0.065519 0.156789 255 255 255
0.011770 -0.185502 0.287509 255 255 255
-0.072024 0.250003 -0.109628 255 255 255
0.028639 0.250004 -0.089369 255 255 255
0.038579 0.033389 -0.249155 255 255 255
-0.009950 0.250002 0.167530 255 255 255
-0.228319 -0.251427 -0.015486 255 255 255
0.421597 0.134971 0.216007 255 255 255
-0.060220 -0.029241 -0.245734 255 255 255
0.119064 -0.022186 -0.218076 255 255 255
-0.072280 -0.248130 0.411099 255 255 255
-0.077137 0.163063 0.242893 255 255 255
-0.078797 -0.249999 0.032984 255 255 255
0.176046 0.059506 0.177901 255 255 255
0.231997 0.058651 0.092521 255 255 255
-0.250153 -0.120997 0.005738 255 255 255
-0.231237 -0.249194 0.039677 255 255 255
-0.096322 -0.089867 -0.230572 255 255 255
-0.225449 -0.153885 -0.102992 255 255 255
0.154616 -0.167818 0.194515 255 255 255
0.129303 -0.247677 0.202865 255 255 255
0.155863 0.005090 0.276809 255 255 255
0.000135 -0.094968 -0.251119 255 255 255
-0.086428 -0.250010 -0.147165 255 255 255
0.086865 0.195009 0.235597 255 255 255
-0.224618 -0.083111 0.109704 255 255 255
0.004836 0.073327 0.255401 255 255 255
0.167523 -0.250229 0.135111 255 255 255
0.118432 0.185419 -0.220589 255 255 255
0.245788 -0.153194 0.038401 255 255 255
-0.087633 -0.250000 -0.031069 255 255 255
0.224734 -0.153458 0.109995 255 255 255
0.004078 -0.250019 0.118987 255 255 255
-0.128833 -0.083125 -0.215880 255 255 255
0.248444 -0.008624 0.008467 255 255 255
0.146147 -0.128230 -0.203439 255 255 255
0.015311 0.249995 0.123455 255 255 255
0.214984 0.142780 -0.131211 255 255 255
0.001996 -0.250001 0.054793 255 255 255
0.088784 0.250590 0.193621 255 255 255
-0.244022 0.211398 -0.053650 255 255 255
-0.233767 -0.134919 0.092962 255 255 255
-0.017354 0.250842 -0.167669 255 255 255
-0.125843 -0.249269 -0.200573 255 255 255
0.100181 0.178244 0.227028 255 255 255
-0.249178 0.037716 -0.002654 255 255 255
0.027385 0.250068 -0.038805 255 255 255
0.117185 -0.093345 0.456359 255 255 255
0.098428 -0.250410 -0.066537 255 255 255
-0.117701 0.083932 -0.220416 255 255 255
0.228154 0.223637 -0.106080 255 255 255
-0.039160 0.249900 -0.050367 255 255 255
-0.042514 0.250072 -0.146200 255 255 255
0.371145 0.042276 0.352393 255 255 255
-0.194355 0.253363 -0.105766 255 255 255
-0.251718 0.241494 -0.034505 255 255 255
-0.022761 0.249775 0.166208 255 255 255
0.134505 0.250001 0.163959 255 255 255
0.103197 0.250171 -0.181451 255 255 255
0.221106 0.097462 0.120973 255 255 255
-0.096914 0.249985 -0.057529 255 255 255
0.057089 -0.017671 0.244320 255 255 255
-0.137937 0.248332 0.185797 255 255 255
0.003461 -0.249999 -0.174210 255 255 255
-0.065372 0.132997 0.244859 255 255 255
-0.005253 0.249995 -0.154034 255 255 255
-0.141183 -0.250099 -0.001034 255 255 255
0.164696 0.249154 0.148436 255 255 255
0.009207 -0.205377 0.259593 255 255 255
0.220889 -0.060080 0.113617 255 255 255
0.277563 0.067573 0.288458 255 255 255
-0.130077 0.250226 0.216077 255 255 255
-0.246771 -0.243787 -0.004440 255 255 255
0.192768 -0.131214 -0.156637 255 255 255
0.126186 -0.250001 0.065451 255 255 255
-0.137711 -0.236329 0.216033 255 255 255
0.056837 0.251265 -0.219528 255 255 255
0.231173 0.169524 0.091947 255 255 255
0.203967 0.220810 0.148872 255 255 255
0.223085 0.174703 -0.115442 255 255 255
0.150642 -0.249997 -0.104159 255 255 255
0.225876 0.142549 0.114249 255 255 255
0.068988 0.254326 0.141036 255 255 255
-0.243150 0.002212 0.044933 255 255 255
0.459081 0.119102 0.240964 255 255 255
-0.133504 -0.097340 0.213943 255 255 255
-0.247989 0.182951 0.038071 255 255 255
-0.072015 0.093143 -0.240529 255 255 255
0.127771 0.139848 0.216072 255 255 255
0.051360 0.134788 0.240018 255 255 255
-0.060121 -0.245089 0.248303 255 255 255
-0.067853 0.187334 -0.240437 255 255 255
-0.024596 0.249998 0.010906 255 255 255
0.146364 0.116594 0.205898 255 255 255
-0.107913 -0.244001 0.238795 255 255 255
-0.217749 0.119150 0.126985 255 255 255
-0.211988 0.138712 0.134870 255 255 255
0.187407 -0.255639 -0.028749 255 255 255
-0.207877 0.249998 0.022067 255 255 255
-0.172526 -0.250000 -0.035682 255 255 255
0.051318 0.081034 0.242408 255 255 255
0.250098 -0.054055 0.037463 255 255 255
0.004557 0.030946 0.250269 255 255 255
-0.212530 0.123513 -0.126510 255 255 255
0.233661 -0.145615 -0.089349 255 255 255
-0.191783 0.252561 0.115065 255 255 255
0.188028 0.250000 -0.074420 255 255 255
0.102640 0.059615 0.231158 255 255 255
0.072948 0.093739 -0.240785 255 255 255
0.090365 0.177897 -0.230205 255 255 255
-0.029910 -0.250313 -0.046621 255 255 255
-0.122994 -0.251200 0.071285 255 255 255
0.178365 -0.254449 -0.087334 255 255 255
0.065029 -0.250001 -0.061310 255 255 255
0.240856 0.076674 0.070200 255 255 255
-0.036925 0.250004 0.154377 255 255 255
0.246167 -0.154378 0.028027 255 255 255
0.027330 0.250001 0.060150 255 255 255
0.237803 -0.142442 0.085560 255 255 255
-0.018263 -0.228465 0.253555 255 255 255
0.034389 0.249837 -0.175261 255 255 255
-0.233258 -0.189798 -0.078981 255 255 255
-0.084696 -0.241302 0.442204 255 255 255
-0.222361 0.154210 0.108270 255 255 255
0.140905 -0.037058 -0.200973 255 255 255
0.155467 -0.027026 0.194457 255 255 255
-0.247755 0.211486 0.011183 255 255 255
0.222049 0.111797 0.143511 255 255 255
-0.242987 0.036625 0.046496 255 255 255
-0.077768 -0.255700 0.117667 255 255 255
0.066686 -0.252790 -0.169992 255 255 255
0.214664 0.191704 -0.127363 255 255 255
-0.003910 0.250000 0.063291 255 255 255
0.110813 0.169716 0.224960 255 255 255
-0.060792 0.250000 0.075188 255 255 255
-0.125415 0.249963 0.188747 255 255 255
-0.244554 -0.087213 0.055771 255 255 255
0.041559 0.250112 0.243794 255 255 255
0.248931 0.247001 0.033989 255 255 255
-0.234385 0.025085 -0.089642 255 255 255
-0.078026 -0.250013 0.169982 255 255 255
0.147131 -0.176195 -0.204493 255 255 255
0.054538 0.249848 -0.163801 255 255 255
-0.076513 -0.124991 -0.239439 255 255 255
-0.087267 -0.249929 0.002024 255 255 255
0.058434 0.250001 -0.195377 255 255 255
0.361113 0.064677 0.335630 255 255 255
0.205089 0.134361 -0.144355 255 255 255
-0.243517 -0.227733 0.037656 255 255 255
0.006694 -0.030074 -0.248937 255 255 255
0.148713 0.062198 0.212683 255 255 255
-0.190246 -0.089329 0.168090 255 255 255
-0.102837 0.236946 0.233744 255 255 255
0.040945 0.005012 -0.246382 255 255 255
0.036473 0.250248 0.122818 255 255 255
-0.187912 -0.024983 -0.165776 255 255 255
0.239195 -0.014283 -0.074926 255 255 255
-0.089545 -0.250232 0.135482 255 255 255
-0.217957 -0.249781 -0.020357 255 255 255
-0.168619 0.249966 0.138333 255 255 255
-0.127650 0.249720 -0.148030 255 255 255
0.252380 0.188539 -0.021171 255 255 255
0.241629 0.074996 -0.046561 255 255 255
-0.025060 -0.072024 0.246144 255 255 255
-0.071100 0.036628 0.240126 255 255 255
0.119305 -0.071617 -0.221160 255 255 255
-0.116676 0.250000 0.059186 255 255 255
-0.220405 0.254489 -0.008615 255 255 255
-0.091099 0.250691 0.032227 255 255 255
-0.152808 0.247002 -0.199429 255 255 255
-0.163834 0.033610 -0.189132 255 255 255
0.007021 0.250677 -0.023666 255 255 255
-0.119875 0.200651 0.220222 255 255 255
-0.237390 0.009841 0.082242 255 255 255
-0.173356 -0.053597 -0.179235 255 255 255
0.022387 -0.248939 -0.167238 255 255 255
-0.244739 -0.202439 -0.044625 255 255 255
-0.225566 -0.008062 -0.122294 255 255 255
0.250647 0.176125 0.038597 255 255 255
0.226216 0.180193 0.118029 255 255 255
0.145509 0.199117 0.204029 255 255 255
0.060414 -0.075995 0.248282 255 255 255
-0.241981 0.154499 -0.068119 255 255 255
-0.112963 -0.259038 -0.104032 255 255 255
-0.250088 0.223008 -0.000290 255 255 255
-0.229773 -0.150984 -0.102928 255 255 255
0.007827 -0.199984 0.280192 255 255 255
0.183912 -0.096718 -0.174766 255 255 255
0.078284 -0.011691 0.241536 255 255 255
0.046999 0.250002 0.046529 255 255 255
-0.094173 0.249198 0.194809 255 255 255
-0.041823 -0.221134 -0.248015 255 255 255
0.085871 0.192433 -0.235360 255 255 255
0.073013 0.249999 -0.052108 255 255 255
0.325423 0.259472 0.074860 255 255 255
0.119390 -0.071288 0.224918 255 255 255
-0.244398 0.057783 0.047097 255 255 255
-0.012685 -0.207063 0.355237 255 255 255
-0.006943 -0.249984 0.231212 255 255 255
-0.039380 0.161026 -0.248048 255 255 255
0.449644 0.144703 0.250077 255 255 255
-0.059384 -0.251025 0.196054 255 255 255
-0.137665 -0.250000 -0.102471 255 255 255
-0.149768 -0.040878 0.201424 255 255 255
-0.059056 0.169284 -0.245187 255 255 255
-0.022029 -0.250687 -0.088036 255 255 255
-0.164534 -0.000579 0.186880 255 255 255
0.036439 0.263526 0.224305 255 255 255
0.102223 0.104165 -0.229777 255 255 255
0.061814 -0.242146 -0.243256 255 255 255
-0.209710 -0.109316 0.137991 255 255 255
0.149797 -0.250002 -0.004965 255 255 255
-0.211471 0.168833 0.138246 255 255 255
-0.163853 -0.051621 0.187278 255 255 255
0.153969 -0.248445 0.142113 255 255 255
0.173318 0.245815 -0.172790 255 255 255
-0.088137 -0.253379 0.024668 255 255 255
0.170637 -0.012103 0.182200 255 255 255
0.020656 -0.189061 0.503164 255 255 255
-0.056646 -0.151829 -0.243841 255 255 255
-0.223360 -0.175855 0.111733 255 255 255
-0.058318 -0.002461 -0.244202 255 255 255
-0.132118 -0.250029 0.155072 255 255 255
-0.232932 0.222700 -0.088021 255 255 255
0.109953 0.249960 -0.199209 255 255 255
0.249427 0.018385 0.010252 255 255 255
0.214616 -0.249890 0.004020 255 255 255
0.155041 -0.250231 -0.114705 255 255 255
0.048777 0.118190 0.244807 255 255 255
0.186987 0.251215 -0.150046 255 255 255
-0.149553 0.176801 0.201745 255 255 255
-0.183082 0.255425 -0.140764 255 255 255
-0.057248 0.107427 0.243341 255 255 255
0.239589 0.095863 0.072215 255 255 255
-0.232991 0.035156 -0.082625 255 255 255
-0.100598 0.249957 -0.105470 255 255 255
-0.083189 0.231114 -0.232758 255 255 255
-0.040614 -0.087568 0.250441 255 255 255
-0.058179 -0.250134 0.141723 255 255 255
0.174295 -0.249854 -0.106961 255 255 255
0.104203 -0.028417 0.240235 255 255 255
0.332146 0.042580 0.387760 255 255 255
-0.237511 0.248754 -0.075350 255 255 255
0.099833 -0.206124 0.231032 255 255 255
-0.124633 -0.201757 -0.216401 255 255 255
-0.059197 -0.248793 -0.236738 255 255 255
0.031613 -0.250003 0.131364 255 255 255
-0.145976 -0.073324 -0.204510 255 255 255
0.087064 -0.085260 -0.234425 255 255 255
0.180635 -0.135009 -0.171890 255 255 255
-0.249712 -0.053210 -0.011896 255 255 255
0.240018 -0.221184 -0.068652 255 255 255
-0.050642 -0.249549 0.038575 255 255 255
0.212755 -0.028433 0.320747 255 255 255
-0.151851 -0.250594 0.057361 255 255 255
-0.109965 -0.065038 -0.227710 255 255 255
-0.005978 0.250098 -0.097179 255 255 255
-0.039822 -0.023117 -0.248650 255 255 255
0.070249 -0.249999 0.212649 255 255 255
0.152980 -0.091524 0.479932 255 255 255
0.023019 0.056574 0.250796 255 255 255
0.190028 0.094266 0.170131 255 255 255
0.217297 0.180469 0.124891 255 255 255
-0.127106 0.250010 0.015779 255 255 255
-0.212463 -0.240975 0.158552 255 255 255
-0.237645 -0.119128 -0.075858 255 255 255
0.229490 0.098448 0.096542 255 255 255
-0.218182 -0.250160 -0.089440 255 255 255
-0.074637 -0.240224 0.380177 255 255 255
0.305280 0.244692 0.040471 255 255 255
-0.203868 -0.021502 -0.146740 255 255 255
-0.181926 0.025099 0.173828 255 255 255
0.248611 -0.038486 -0.023399 255 255 255
-0.083001 0.250020 0.152733 255 255 255
-0.189101 -0.250371 0.110205 255 255 255
0.007117 -0.249949 -0.128400 255 255 255
-0.081636 -0.250000 0.053260 255 255 255
0.383537 0.157884 0.261597 255 255 255
-0.199527 0.249997 -0.106801 255 255 255
0.252956 -0.179458 0.013995 255 255 255
-0.249506 -0.241254 0.018101 255 255 255
0.037336 -0.259245 -0.176853 255 255 255
-0.069820 -0.250000 0.022069 255 255 255
0.127960 -0.177682 0.210517 255 255 255
0.093945 0.250114 -0.153444 255 255 255
0.102971 0.067560 -0.233648 255 255 255
0.002394 0.203973 -0.250944 255 255 255
-0.029174 -0.250001 0.021107 255 255 255
0.136070 -0.250003 0.072486 255 255 255
-0.249530 0.052800 -0.014520 255 255 255
0.050651 -0.249456 0.193786 255 255 255
0.086788 -0.226818 -0.228177 255 255 255
-0.203921 0.075305 0.144910 255 255 255
0.203591 -0.243038 0.155269 255 255 255
0.244285 -0.088630 0.051277 255 255 255
0.227671 0.246538 -0.105043 255 255 255
-0.117803 -0.189417 -0.221744 255 255 255
0.250792 0.220221 0.082404 255 255 255
-0.220009 -0.018072 -0.129408 255 255 255
-0.226945 0.217905 0.102258 255 255 255
0.196443 -0.240123 -0.156685 255 255 255
0.235486 -0.251782 -0.079594 255 255 255
-0.103486 -0.161327 -0.229448 255 255 255
-0.235754 0.001755 -0.080133 255 255 255
0.038060 0.250011 0.050037 255 255 255
-0.045281 0.250001 -0.017007 255 255 255
-0.152731 0.174935 -0.198698 255 255 255
0.142897 -0.122133 0.202472 255 255 255
0.120824 0.209489 0.215313 255 255 255
0.111261 -0.103337 0.358987 255 255 255
-0.170379 0.123280 0.183926 255 255 255
-0.006553 0.249989 -0.060152 255 255 255
0.077321 -0.045784 0.247224 255 255 255
-0.065865 -0.249844 -0.147131 255 255 255
-0.162913 0.249929 -0.031952 255 255 255
-0.174589 0.116894 0.181091 255 255 255
-0.248544 0.032073 0.038650 255 255 255
0.289131 0.028350 0.362613 255 255 255
-0.258247 -0.248431 0.041128 255 255 255
0.032361 0.086185 0.250363 255 255 255
-0.159911 0.049997 0.188379 255 255 255
0.218840 -0.037308 0.414989 255 255 255
-0.087253 -0.216221 0.245861 255 255 255
0.154270 -0.086187 -0.200876 255 255 255
-0.119314 0.250004 0.105150 255 255 255
0.058444 0.093613 0.242757 255 255 255
0.245814 -0.098971 0.048992 255 255 255
0.054508 -0.086444 -0.244598 255 255 255
0.098011 -0.145848 0.468510 255 255 255
-0.226986 0.166296 -0.111371 255 255 255
0.109286 -0.253340 0.220175 255 255 255
0.093717 0.001453 0.232246 255 255 255
-0.027193 0.249109 -0.079440 255 255 255
-0.128198 0.025673 -0.215791 255 255 255
-0.091453 -0.040714 -0.240407 255 255 255
-0.101965 -0.194301 -0.228067 255 255 255
-0.100258 0.029185 0.230856 255 255 255
-0.166016 -0.015840 0.187374 255 255 255
0.064316 0.250083 0.071945 255 255 255
0.151332 -0.250002 0.143668 255 255 255
0.024348 0.177586 -0.250035 255 255 255
0.247710 0.064110 -0.039469 255 255 255
-0.046078 0.250000 -0.199388 255 255 255
-0.069433 -0.250022 0.137886 255 255 255
0.187910 0.018078 0.165775 255 255 255
-0.024412 -0.249970 -0.091261 255 255 255
-0.007345 -0.249999 0.005852 255 255 255
0.138433 0.251350 -0.178127 255 255 255
-0.201658 0.250492 -0.014753 255 255 255
0.228574 0.227535 0.108168 255 255 255
-0.025507 -0.208714 0.314824 255 255 255
0.195726 -0.060923 0.424627 255 255 255
-0.086635 0.249999 -0.108953 255 255 255
-0.235036 -0.088508 -0.089164 255 255 255
-0.246530 -0.199255 0.033359 255 255 255
0.021262 -0.089189 0.255523 255 255 255
-0.189387 0.249105 0.092803 255 255 255
-0.048986 0.249399 -0.169013 255 255 255
-0.024093 -0.137694 -0.249722 255 255 255
0.194900 0.249142 -0.126482 255 255 255
-0.241290 0.206785 0.068878 255 255 255
0.047363 0.228823 -0.249200 255 255 255
0.231999 0.223682 -0.096013 255 255 255
-0.107020 -0.249394 0.016962 255 255 255
-0.074823 0.149228 -0.241500 255 255 255
-0.043028 -0.256308 -0.036867 255 255 255
-0.226373 -0.221244 0.113298 255 255 255
-0.046906 -0.026480 -0.248899 255 255 255
0.033671 -0.003921 -0.250731 255 255 255
0.246402 -0.032541 0.046242 255 255 255
0.226393 -0.077956 -0.109906 255 255 255
0.228794 0.203438 0.111700 255 255 255
-0.218151 -0.024689 -0.134424 255 255 255
0.059819 -0.144760 -0.243303 255 255 255
0.029156 0.102787 -0.248640 255 255 255
-0.206646 -0.250537 0.093076 255 255 255
-0.253861 -0.109266 -0.023610 255 255 255
0.179078 0.258846 0.051470 255 255 255
-0.122675 -0.136920 0.218316 255 255 255
0.093615 -0.202266 -0.233220 255 255 255
0.117593 0.130714 -0.219674 255 255 255
-0.170473 0.250006 0.058881 255 255 255
-0.074555 0.059750 -0.241306 255 255 255
-0.011578 0.250000 -0.060083 255 255 255
0.084208 0.008894 -0.237070 255 255 255
0.179715 -0.249953 0.159654 255 255 255
-0.236974 -0.243007 0.088780 255 255 255
-0.238003 0.037058 0.070171 255 255 255
0.211834 0.035513 0.132995 255 255 255
0.100131 -0.250070 -0.100693 255 255 255
-0.185076 0.137757 -0.169024 255 255 255
0.174226 0.059320 0.181566 255 255 255
-0.183953 -0.116499 0.168175 255 255 255
-0.247347 0.087338 -0.032355 255 255 255
0.016928 -0.250000 0.125768 255 255 255
-0.199380 0.250828 -0.100701 255 255 255
-0.118958 0.250180 0.028316 255 255 255
0.048740 -0.001979 0.248095 255 255 255
-0.144175 0.249997 -0.099158 255 255 255
-0.248226 -0.117911 -0.015267 255 255 255
0.007126 -0.248407 -0.200190 255 255 255
0.048627 -0.250001 -0.031667 255 255 255
0.195524 0.250080 -0.029729 255 255 255
0.179053 -0.071671 0.174665 255 255 255
0.162340 -0.250042 -0.041355 255 255 255
-0.007957 -0.141746 -0.250834 255 255 255
-0.220067 0.106878 -0.117521 255 255 255
0.050299 0.165465 0.242824 255 255 255
0.214989 0.146477 0.128371 255 255 255
0.243122 -0.246569 0.071008 255 255 255
0.118060 -0.076278 0.349930 255 255 255
-0.047339 -0.249987 -0.049241 255 255 255
0.173614 0.040962 -0.179962 255 255 255
-0.053864 -0.250000 -0.061002 255 255 255
0.220991 0.087364 0.114683 255 255 255
-0.046657 -0.249998 -0.047921 255 255 255
-0.248216 0.004130 0.014047 255 255 255
0.084482 -0.152870 0.490338 255 255 255
0.012102 -0.251039 -0.107853 255 255 255
-0.035595 0.192222 0.247015 255 255 255
-0.223029 0.224918 -0.115808 255 255 255
0.054069 0.249999 -0.052638 255 255 255
-0.249499 -0.043354 -0.000020 255 255 255
0.248580 -0.161239 -0.012677 255 255 255
-0.197642 -0.170748 0.154171 255 255 255
0.236103 -0.086569 0.090272 255 255 255
0.017853 0.249891 0.142802 255 255 255
0.489186 0.191392 0.137099 255 255 255
0.161566 -0.250006 0.033640 255 255 255
-0.020692 0.250001 -0.064517 255 255 255
0.091272 -0.249945 0.032831 255 255 255
-0.153246 -0.250000 0.117532 255 255 255
-0.144001 0.035621 -0.205605 255 255 255
-0.122011 0.141321 -0.217842 255 255 255
-0.006186 0.170937 0.252209 255 255 255
-0.051496 -0.214289 0.250479 255 255 255
0.012234 -0.249055 0.227686 255 255 255
-0.074995 0.221701 -0.241155 255 255 255
-0.049717 -0.133782 -0.244814 255 255 255
0.181568 -0.022347 -0.170403 255 255 255
-0.240935 0.088772 0.054339 255 255 255
0.198287 -0.056348 0.152770 255 255 255
0.055999 0.250000 -0.047318 255 255 255
-0.220895 -0.220455 0.124744 255 255 255
-0.028245 -0.188512 0.413320 255 255 255
0.175413 0.090482 0.200713 255 255 255
-0.033521 0.249912 0.134609 255 255 255
-0.036477 -0.249850 0.258597 255 255 255
0.057887 0.175386 -0.240426 255 255 255
-0.192978 0.078139 -0.156246 255 255 255
-0.236947 0.245396 0.002420 255 255 255
-0.014568 -0.073579 -0.252925 255 255 255
-0.068102 -0.249999 -0.103058 255 255 255
0.024195 0.135341 0.251861 255 255 255
0.071555 0.249566 0.195336 255 255 255
-0.083203 0.066249 -0.238877 255 255 255
0.052166 0.252162 -0.123708 255 255 255
-0.070368 -0.140176 0.239464 255 255 255
-0.041611 -0.249973 0.112488 255 255 255
0.217844 0.064987 -0.125854 255 255 255
-0.252175 -0.200541 -0.006679 255 255 255
-0.000141 -0.094201 0.251008 255 255 255
-0.245137 -0.153925 -0.048123 255 255 255
-0.231468 0.045488 -0.102663 255 255 255
-0.248683 -0.142340 0.039179 255 255 255
-0.095312 0.249966 -0.083242 255 255 255
0.397944 0.179962 0.181904 255 255 255
-0.075617 -0.038444 0.241443 255 255 255
0.017055 -0.055853 0.250524 255 255 255
0.252789 0.012573 -0.005533 255 255 255
0.233155 0.162449 -0.094379 255 255 255
-0.017650 0.250000 0.089009 255 255 255
-0.164195 -0.186133 -0.196409 255 255 255
0.070561 0.220945 0.239457 255 255 255
0.037574 0.030061 -0.251377 255 255 255
-0.244378 -0.112188 -0.041229 255 255 255
0.115303 -0.227131 -0.221973 255 255 255
-0.121264 0.249998 -0.080941 255 255 255
0.139670 -0.250000 -0.132345 255 255 255
-0.073900 0.106526 0.238270 255 255 255
-0.145371 -0.250008 -0.145776 255 255 255
0.245934 0.081485 -0.043730 255 255 255
0.196506 -0.250000 0.016412 255 255 255
0.095128 -0.101975 0.231283 255 255 255
-0.029806 -0.142449 0.246620 255 255 255
-0.056564 -0.212252 0.307636 255 255 255
-0.102471 -0.250002 0.090928 255 255 255
-0.100195 0.251446 0.165214 255 255 255
0.247581 -0.203748 0.039380 255 255 255
0.047087 0.250005 -0.123375 255 255 255
0.008330 0.141095 -0.248935 255 255 255
-0.141847 -0.224336 -0.216380 255 255 255
-0.133357 0.044458 0.207920 255 255 255
-0.047716 0.015751 0.248306 255 255 255
-0.245235 0.064856 -0.049087 255 255 255
-0.156381 -0.249516 0.022470 255 255 255
0.437367 0.203662 0.155178 255 255 255
0.145970 0.250060 -0.024828 255 255 255
-0.244917 0.193177 -0.054673 255 255 255
0.251967 -0.161828 0.016936 255 255 255
0.305951 0.083784 0.234806 255 255 255
0.167337 -0.250061 -0.000882 255 255 255
0.048155 -0.169812 0.400289 255 255 255
0.053834 -0.233273 0.244287 255 255 255
0.127664 -0.249997 0.044687 255 255 255
0.033543 -0.250002 0.075806 255 255 255
0.114769 0.249921 -0.007592 255 255 255
-0.116988 -0.101814 -0.221603 255 255 255
0.172054 -0.047586 -0.181994 255 255 255
0.111183 0.249925 0.210906 255 255 255
0.233149 -0.136820 -0.087093 255 255 255
-0.111671 -0.246671 0.121937 255 255 255
-0.011825 -0.237726 0.252686 255 255 255
0.038609 -0.250014 0.103539 255 255 255
0.184325 -0.089781 -0.171405 255 255 255
0.186581 0.065393 0.196182 255 255 255
-0.152507 0.148910 -0.198362 255 255 255
0.111651 0.127392 0.222851 255 255 255
0.234312 0.210570 0.113033 255 255 255
0.205872 0.126768 0.138445 255 255 255
-0.120917 -0.249996 -0.059045 255 255 255
-0.011107 0.020863 -0.251206 255 255 255
0.142117 -0.122435 0.204022 255 255 255
0.036676 0.154545 0.248609 255 255 255
0.160869 0.262428 -0.161823 255 255 255
0.033755 0.220678 0.245926 255 255 255
0.200503 -0.080626 0.455806 255 255 255
-0.170077 -0.026667 0.182747 255 255 255
-0.244894 -0.038213 -0.050853 255 255 255
0.124838 0.249610 0.190997 255 255 255
-0.045371 0.250029 -0.218605 255 255 255
0.239414 -0.128031 0.079560 255 255 255
0.064868 0.218159 -0.241197 255 255 255
0.210509 -0.249978 0.056467 255 255 255
-0.217161 0.054344 -0.119384 255 255 255
-0.215579 -0.226602 -0.123481 255 255 255
0.123376 -0.250001 -0.157915 255 255 255
-0.241783 0.080792 -0.063512 255 255 255
0.250284 0.089454 -0.000511 255 255 255
-0.243352 -0.057187 0.063237 255 255 255
0.239354 -0.039541 -0.070514 255 255 255
-0.225672 0.038533 -0.107042 255 255 255
0.058770 -0.249999 0.173660 255 255 255
0.244157 -0.011952 -0.057358 255 255 255
-0.063609 0.155923 -0.242966 255 255 255
0.174013 -0.249998 0.008772 255 255 255
0.250435 -0.099988 0.001335 255 255 255
0.034746 0.253908 0.189259 255 255 255
-0.020237 -0.205684 0.408827 255 255 255
-0.139019 0.146190 -0.208491 255 255 255
0.207498 0.076356 -0.143458 255 255 255
0.193769 0.073638 -0.157773 255 255 255
-0.136926 0.159114 -0.206876 255 255 255
-0.002543 0.256617 -0.146385 255 255 255
0.014533 0.159912 0.254857 255 255 255
0.217329 0.251897 0.003768 255 255 255
0.168810 -0.248830 -0.143098 255 255 255
0.029055 0.249999 -0.137582 255 255 255
0.247835 0.134411 -0.045387 255 255 255
-0.173527 -0.042955 0.177963 255 255 255
0.038837 0.249956 -0.011714 255 255 255
0.431625 0.151408 0.207772 255 255 255
0.045125 0.247044 0.248238 255 255 255
0.231028 0.019805 -0.084612 255 255 255
0.146259 -0.019282 0.202923 255 255 255
-0.037055 -0.249942 0.258329 255 255 255
0.018831 0.249999 0.070532 255 255 255
-0.159215 -0.250866 0.098248 255 255 255
0.070465 0.249956 -0.150208 255 255 255
0.157386 -0.250049 -0.064310 255 255 255
0.183883 0.199383 -0.166046 255 255 255
0.202080 -0.040322 0.391534 255 255 255
-0.232446 0.144573 -0.090186 255 255 255
-0.149370 0.249471 0.135916 255 255 255
0.163046 0.248363 -0.092872 255 255 255
0.104998 0.189778 -0.226952 255 255 255
0.120279 0.249881 -0.100640 255 255 255
-0.160540 -0.211197 0.192738 255 255 255
0.250764 0.128432 0.002499 255 255 255
0.200313 0.168013 -0.150183 255 255 255
-0.188336 -0.249733 0.149581 255 255 255
0.010188 0.170155 0.248708 255 255 255
0.095904 0.213623 -0.231653 255 255 255
-0.014440 -0.250121 0.214614 255 255 255
0.238440 -0.210318 0.076714 255 255 255
-0.176672 0.028506 -0.179084 255 255 255
0.079262 -0.167286 -0.237582 255 255 255
-0.135345 -0.249689 -0.153085 255 255 255
-0.001737 -0.190378 -0.248610 255 255 255
-0.091898 0.249931 0.055930 255 255 255
-0.101059 -0.152861 -0.231431 255 255 255
-0.030559 0.136241 0.248108 255 255 255
-0.250103 0.170732 0.020128 255 255 255
0.053583 -0.165831 0.318083 255 255 255
0.247746 -0.133964 0.048805 255 255 255
-0.116585 0.085952 0.224761 255 255 255
-0.182174 -0.250000 -0.086188 255 255 255
-0.209996 0.056700 -0.131201 255 255 255
0.181473 -0.007040 0.319864 255 255 255
-0.122057 -0.250011 -0.152856 255 255 255
-0.251668 -0.045485 -0.011575 255 255 255
0.208254 0.250007 0.017866 255 255 255
-0.170926 -0.217460 0.180748 255 255 255
0.252523 0.248916 0.042524 255 255 255
0.028868 0.254613 -0.064523 255 255 255
-0.047543 -0.210152 0.255377 255 255 255
0.078636 -0.065842 0.239965 255 255 255
-0.202016 0.199334 -0.164356 255 255 255
0.219778 -0.009581 -0.129084 255 255 255
0.150638 0.076900 -0.198846 255 255 255
-0.034537 0.250000 0.093632 255 255 255
0.027013 0.159373 -0.249457 255 255 255
0.250882 0.235251 0.069219 255 255 255
0.249552 0.159712 0.013652 255 255 255
0.227083 0.249635 0.034182 255 255 255
-0.025900 -0.053737 0.248675 255 255 255
-0.056001 0.140514 -0.244589 255 255 255
0.076236 0.026339 -0.239974 255 255 255
-0.085936 -0.045398 -0.236636 255 255 255
0.132603 -0.100203 -0.213594 255 255 255
0.052218 0.027942 0.245416 255 255 255
-0.237480 -0.141107 -0.072282 255 255 255
0.393360 0.099485 0.263762 255 255 255
-0.206154 -0.027587 -0.136920 255 255 255
-0.142747 0.074232 -0.204893 255 255 255
0.245766 0.230707 -0.048486 255 255 255
0.157841 -0.249824 0.064090 255 255 255
0.061799 -0.250006 0.172934 255 255 255
-0.063651 -0.258642 0.094339 255 255 255
-0.055171 -0.249971 0.182533 255 255 255
-0.215574 0.169730 -0.126680 255 255 255
-0.036803 -0.151980 0.250782 255 255 255
-0.229685 -0.043721 0.099817 255 255 255
0.155825 0.220946 -0.194042 255 255 255
0.113350 0.249298 0.155872 255 255 255
-0.121721 -0.249999 -0.102736 255 255 255
-0.227555 0.253005 -0.003599 255 255 255
-0.080672 -0.249696 0.176192 255 255 255
-0.181598 -0.229655 -0.176739 255 255 255
0.132438 -0.250090 0.173943 255 255 255
0.222053 0.015270 -0.113713 255 255 255
-0.014715 0.249712 -0.187642 255 255 255
-0.125144 -0.066930 0.213046 255 255 255
0.228886 -0.201035 -0.100946 255 255 255
-0.232110 0.010933 0.091679 255 255 255
-0.162918 -0.249465 0.128416 255 255 255
-0.187287 0.206651 -0.166367 255 255 255
0.172713 -0.074497 -0.179204 255 255 255
-0.030605 -0.065228 0.262311 255 255 255
-0.231538 0.077693 0.094177 255 255 255
0.249410 0.034039 0.031820 255 255 255
0.099765 0.249295 -0.212001 255 255 255
-0.168833 -0.249974 0.077556 255 255 255
-0.241979 0.104393 -0.068427 255 255 255
-0.159202 -0.250028 -0.008650 255 255 255
0.238782 -0.155772 0.083341 255 255 255
0.017428 0.006671 0.249282 255 255 255
0.147523 0.058353 -0.202760 255 255 255
-0.129156 -0.199618 0.215456 255 255 255
-0.059602 -0.249151 0.082062 255 255 255
-0.092314 -0.249982 -0.206893 255 255 255
