ply
    		format ascii 1.0
    		element vertex 2048
    		property float x
    		property float y
    		property float z
    		property uchar red
    		property uchar green
    		property uchar blue
    		end_header
-0.140627 0.007105 -0.201002 255 255 255
-0.222557 -0.170936 0.112678 255 255 255
0.294516 0.156368 0.170053 255 255 255
0.200056 0.016974 0.154948 255 255 255
0.142980 0.187801 0.195487 255 255 255
0.251862 -0.080595 0.058625 255 255 255
-0.172431 0.237790 0.161147 255 255 255
-0.238243 0.028943 0.085487 255 255 255
-0.208185 0.065523 -0.128479 255 255 255
0.118967 0.105761 -0.210795 255 255 255
-0.079405 0.219025 -0.229515 255 255 255
0.246129 -0.167554 0.023107 255 255 255
0.114400 -0.203070 -0.219271 255 255 255
-0.171975 -0.120685 0.169376 255 255 255
-0.225916 0.081667 -0.100059 255 255 255
-0.065836 0.211689 -0.191744 255 255 255
0.029610 -0.187114 0.241399 255 255 255
-0.249133 -0.166795 -0.010420 255 255 255
-0.026290 -0.036960 0.241714 255 255 255
-0.216421 0.193370 -0.115871 255 255 255
0.041125 -0.171405 0.278558 255 255 255
-0.212830 0.205286 0.114195 255 255 255
0.229489 -0.029446 0.314476 255 255 255
0.248632 -0.109740 -0.006856 255 255 255
0.108185 0.218035 -0.220473 255 255 255
0.445963 0.201771 0.180808 255 255 255
0.126112 -0.123995 -0.207020 255 255 255
0.110325 0.098559 0.219254 255 255 255
0.195082 -0.046922 0.269410 255 255 255
-0.020029 -0.068904 -0.235070 255 255 255
0.179043 -0.080397 0.170240 255 255 255
0.169247 -0.185002 -0.185099 255 255 255
0.245590 -0.197881 -0.044141 255 255 255
0.014572 -0.246644 -0.126886 255 255 255
-0.000376 -0.144102 0.248334 255 255 255
0.083268 -0.198973 -0.232172 255 255 255
-0.162433 -0.013768 0.180872 255 255 255
0.080421 0.252434 -0.120463 255 255 255
0.184904 -0.100626 -0.164274 255 255 255
-0.182176 0.028484 -0.144117 255 255 255
-0.232330 -0.184559 0.043025 255 255 255
0.198094 -0.094435 0.142616 255 255 255
0.183416 0.212731 -0.158308 255 255 255
0.013986 -0.258521 -0.247082 255 255 255
-0.146632 -0.010207 0.191203 255 255 255
-0.120986 -0.086424 -0.211460 255 255 255
-0.242232 0.156847 -0.035787 255 255 255
0.210273 0.090273 0.120697 255 255 255
0.198875 -0.090215 0.150656 255 255 255
0.198367 0.006161 -0.146299 255 255 255
0.053580 0.079977 -0.243664 255 255 255
0.384574 0.231417 0.132219 255 255 255
0.214359 -0.133299 -0.114842 255 255 255
-0.086410 0.077485 0.231315 255 255 255
-0.148729 -0.195766 0.192344 255 255 255
0.227244 -0.018725 0.094127 255 255 255
0.124365 -0.065827 -0.215282 255 255 255
-0.145989 -0.052828 0.192245 255 255 255
-0.100596 -0.100049 -0.225542 255 255 255
0.177572 0.235638 0.171179 255 255 255
0.244093 -0.241726 -0.032663 255 255 255
-0.082293 0.101136 0.231698 255 255 255
-0.020048 0.224026 0.223572 255 255 255
-0.229676 -0.061643 0.028666 255 255 255
0.001138 -0.084470 0.239288 255 255 255
0.112914 0.041487 0.206808 255 255 255
-0.077035 0.242941 -0.100398 255 255 255
-0.042396 -0.272385 0.241208 255 255 255
0.238592 0.131602 0.075771 255 255 255
0.188246 -0.222435 -0.066116 255 255 255
-0.229213 0.075816 -0.065742 255 255 255
0.078479 0.060963 0.238202 255 255 255
-0.226216 -0.074687 0.094205 255 255 255
0.039861 0.182221 -0.247395 255 255 255
-0.206682 -0.134416 -0.136906 255 255 255
-0.221551 -0.207911 0.097092 255 255 255
0.246162 -0.081567 -0.020599 255 255 255
-0.000482 -0.189061 -0.248756 255 255 255
0.244778 0.152867 0.077460 255 255 255
0.115128 -0.153855 0.213516 255 255 255
0.214216 0.080580 -0.128157 255 255 255
0.212215 -0.014672 -0.115537 255 255 255
0.071577 0.044632 0.241535 255 255 255
0.168727 0.114541 -0.178999 255 255 255
-0.131141 -0.148606 0.202203 255 255 255
-0.195023 -0.086220 0.154509 255 255 255
-0.133338 -0.140946 0.200492 255 255 255
0.137992 -0.203328 0.203343 255 255 255
-0.085811 -0.182226 -0.228062 255 255 255
0.153605 0.167995 -0.199924 255 255 255
0.240765 0.045795 0.053319 255 255 255
0.192387 -0.176136 -0.154572 255 255 255
0.362088 0.035611 0.311784 255 255 255
0.187437 -0.157579 -0.154389 255 255 255
-0.046878 -0.162310 -0.237789 255 255 255
0.175496 0.062194 0.175252 255 255 255
-0.137045 -0.055435 -0.195151 255 255 255
0.084160 0.006410 -0.227815 255 255 255
0.035193 0.244614 -0.239577 255 255 255
-0.205555 -0.078423 0.094360 255 255 255
0.217126 -0.051263 -0.110481 255 255 255
0.152085 -0.198895 -0.193203 255 255 255
0.234118 0.240117 -0.076913 255 255 255
-0.228765 0.113757 -0.096497 255 255 255
-0.115877 -0.103830 0.216108 255 255 255
-0.249977 -0.051016 -0.013585 255 255 255
0.133225 0.150253 -0.206707 255 255 255
-0.133782 0.160677 0.180990 255 255 255
0.122387 0.080342 0.215259 255 255 255
-0.235686 -0.141509 0.062718 255 255 255
0.243524 -0.064045 0.053366 255 255 255
-0.047298 -0.213917 0.305588 255 255 255
0.041081 0.253686 0.245974 255 255 255
0.158999 -0.233582 0.183442 255 255 255
0.131840 -0.088732 -0.214393 255 255 255
-0.140739 0.243505 -0.081122 255 255 255
0.226116 0.253447 0.073451 255 255 255
0.004126 0.009688 0.250975 255 255 255
0.189328 0.240050 -0.099493 255 255 255
-0.115156 0.005591 -0.219808 255 255 255
-0.065948 -0.181983 -0.241484 255 255 255
-0.021077 0.207930 0.252106 255 255 255
0.048147 0.215535 0.151521 255 255 255
0.067076 -0.069569 0.238597 255 255 255
-0.142874 0.234703 -0.197829 255 255 255
0.182348 0.208306 -0.166426 255 255 255
-0.239956 0.016598 0.059035 255 255 255
-0.112011 0.082518 0.218282 255 255 255
0.153130 -0.022267 -0.198291 255 255 255
0.046447 0.069947 0.238838 255 255 255
-0.079794 -0.166191 0.226064 255 255 255
0.217713 -0.057808 -0.118568 255 255 255
0.033061 -0.231014 0.241963 255 255 255
-0.049070 0.107795 0.244075 255 255 255
0.049576 0.211661 -0.246276 255 255 255
-0.018595 -0.071190 -0.244132 255 255 255
0.122647 -0.153513 0.314294 255 255 255
-0.226705 -0.023527 -0.090009 255 255 255
-0.007265 -0.057699 0.245526 255 255 255
-0.050709 0.089667 0.241329 255 255 255
-0.136846 0.076906 0.204380 255 255 255
-0.237241 -0.188671 -0.089686 255 255 255
0.196236 0.225378 -0.152451 255 255 255
0.169772 0.132600 0.174726 255 255 255
0.125106 -0.061793 0.211325 255 255 255
0.392235 0.119807 0.283603 255 255 255
-0.219457 0.008289 0.121977 255 255 255
0.243805 -0.169042 -0.007400 255 255 255
-0.047383 0.132732 -0.235975 255 255 255
-0.009178 -0.109038 -0.252887 255 255 255
0.138192 0.129685 0.203660 255 255 255
-0.150878 0.181566 -0.190739 255 255 255
-0.174269 -0.111775 -0.173432 255 255 255
-0.236349 -0.100832 0.054795 255 255 255
-0.055560 -0.114264 -0.242777 255 255 255
0.302011 0.117431 0.228827 255 255 255
-0.185003 0.181868 0.143067 255 255 255
0.087641 0.157143 -0.227476 255 255 255
0.220433 -0.115891 0.104276 255 255 255
0.129730 0.238092 0.194965 255 255 255
0.078730 -0.105006 -0.225012 255 255 255
0.032648 -0.209089 0.246031 255 255 255
0.248103 -0.203716 -0.010036 255 255 255
0.072133 0.189804 -0.231327 255 255 255
0.043383 -0.143466 0.234317 255 255 255
-0.058435 -0.038554 0.234186 255 255 255
0.216326 0.018830 0.157687 255 255 255
0.082028 -0.043386 0.236483 255 255 255
0.242551 0.242288 0.097173 255 255 255
0.229676 -0.062254 0.095986 255 255 255
0.036609 0.185865 -0.236378 255 255 255
-0.182777 0.115687 0.161919 255 255 255
0.042240 0.165321 -0.245058 255 255 255
0.254142 0.087678 0.177533 255 255 255
0.044474 -0.225646 -0.242555 255 255 255
-0.051275 0.243319 -0.214003 255 255 255
0.131628 -0.053400 -0.205162 255 255 255
0.163584 0.239199 0.053470 255 255 255
0.016335 -0.087733 -0.242424 255 255 255
-0.193378 0.103159 -0.146295 255 255 255
-0.064445 -0.003234 0.231595 255 255 255
0.083487 -0.180900 0.226737 255 255 255
-0.209069 0.168321 -0.040663 255 255 255
0.066833 -0.086416 0.241171 255 255 255
0.038410 0.054212 0.244025 255 255 255
-0.232767 0.079458 -0.076928 255 255 255
-0.243236 -0.187809 -0.034558 255 255 255
0.130032 0.154601 0.207499 255 255 255
-0.054365 -0.005701 0.240996 255 255 255
0.211253 -0.053723 0.144413 255 255 255
0.162803 -0.204800 0.174171 255 255 255
0.250314 0.114140 0.040633 255 255 255
0.161785 -0.122965 0.185045 255 255 255
0.184950 -0.097212 0.169760 255 255 255
-0.212841 -0.156376 -0.126003 255 255 255
-0.225262 0.031579 0.102377 255 255 255
-0.230373 -0.226166 -0.070123 255 255 255
-0.198958 -0.176491 0.143956 255 255 255
0.160464 -0.116798 -0.187671 255 255 255
0.185093 -0.065327 -0.160002 255 255 255
0.216627 -0.013762 -0.110158 255 255 255
0.208307 -0.176441 -0.134246 255 255 255
-0.157607 0.193125 0.188582 255 255 255
0.206254 0.185534 0.136196 255 255 255
-0.261515 0.025068 -0.031493 255 255 255
-0.221686 0.239349 0.118682 255 255 255
0.053357 0.172305 0.235435 255 255 255
-0.135604 -0.239077 0.205059 255 255 255
0.000845 0.221316 -0.247919 255 255 255
-0.240006 -0.048033 -0.041779 255 255 255
-0.249328 -0.114922 0.019296 255 255 255
-0.089429 -0.080280 0.231226 255 255 255
0.222177 0.044116 0.090372 255 255 255
0.134341 0.107300 -0.194675 255 255 255
0.033241 0.158901 0.245915 255 255 255
0.121672 0.229543 0.193553 255 255 255
-0.011309 -0.053681 -0.248450 255 255 255
0.237555 0.101147 0.057385 255 255 255
0.058445 -0.180227 0.351451 255 255 255
0.114808 -0.224438 0.169426 255 255 255
-0.201423 -0.205793 -0.003305 255 255 255
-0.130315 -0.253056 0.203942 255 255 255
0.155846 0.162057 0.194136 255 255 255
-0.200656 0.110378 -0.141377 255 255 255
-0.247837 -0.100110 0.030740 255 255 255
0.225158 0.157659 0.131375 255 255 255
-0.124919 0.239224 -0.197032 255 255 255
-0.235532 0.137220 -0.056074 255 255 255
-0.069384 0.180499 -0.237482 255 255 255
-0.149645 -0.128680 0.188804 255 255 255
0.196109 0.198140 0.156924 255 255 255
0.233045 0.028473 0.344914 255 255 255
0.223759 -0.230753 -0.103897 255 255 255
0.182939 -0.133980 0.155707 255 255 255
0.252038 0.139375 0.147239 255 255 255
0.227265 0.097278 -0.091238 255 255 255
0.050806 0.182712 -0.216106 255 255 255
-0.162920 -0.149650 -0.172398 255 255 255
0.094262 -0.193596 -0.228140 255 255 255
0.212614 0.005121 -0.125295 255 255 255
0.246618 -0.146781 -0.028360 255 255 255
0.256356 0.023452 0.054757 255 255 255
0.238826 -0.090515 -0.080051 255 255 255
-0.127764 0.189973 0.214548 255 255 255
0.042957 0.210139 0.233257 255 255 255
-0.050708 -0.085761 0.242279 255 255 255
-0.167424 -0.236397 0.003768 255 255 255
0.032288 -0.163855 -0.242626 255 255 255
0.005491 0.006619 -0.252919 255 255 255
-0.243021 -0.219528 0.047626 255 255 255
0.168091 0.003100 -0.179544 255 255 255
0.249127 0.114356 0.008302 255 255 255
-0.109395 -0.245983 -0.182472 255 255 255
-0.163289 -0.135363 -0.180602 255 255 255
-0.122166 0.134261 -0.211134 255 255 255
0.379026 0.076877 0.282335 255 255 255
0.153917 0.248964 0.116925 255 255 255
0.135151 -0.257859 0.201968 255 255 255
-0.245782 0.145470 -0.016522 255 255 255
0.163710 -0.230636 0.182316 255 255 255
0.296355 0.007622 0.322138 255 255 255
-0.207668 0.146995 0.129854 255 255 255
-0.192528 0.205594 -0.149555 255 255 255
0.054373 -0.060995 0.241213 255 255 255
-0.122143 -0.156199 -0.212119 255 255 255
-0.247161 0.180598 0.017947 255 255 255
-0.090387 -0.020171 0.229732 255 255 255
-0.247019 -0.017051 -0.015937 255 255 255
-0.048225 0.054799 -0.240746 255 255 255
0.167602 0.256346 0.093508 255 255 255
0.033056 0.241176 0.128661 255 255 255
0.137938 -0.157003 -0.201082 255 255 255
0.164934 -0.057711 0.180729 255 255 255
0.060858 0.116460 -0.239734 255 255 255
0.202952 0.122918 0.147522 255 255 255
-0.042809 -0.004492 -0.249756 255 255 255
0.250033 -0.107837 0.094124 255 255 255
0.349926 0.229584 0.079814 255 255 255
-0.082031 0.119595 -0.235522 255 255 255
0.209064 -0.019695 -0.115152 255 255 255
-0.159170 0.126756 0.186595 255 255 255
-0.227066 -0.219916 0.076068 255 255 255
0.037231 0.073120 -0.244186 255 255 255
-0.149406 -0.035318 0.197171 255 255 255
-0.005219 -0.205793 0.244947 255 255 255
0.074355 0.177679 -0.229211 255 255 255
-0.087521 0.036901 0.227556 255 255 255
-0.156558 0.083987 0.184128 255 255 255
0.208656 -0.159497 0.137887 255 255 255
0.215889 0.080172 0.116021 255 255 255
-0.240826 0.035986 0.064123 255 255 255
-0.117590 0.113701 -0.215911 255 255 255
0.188902 0.186577 0.139151 255 255 255
0.023250 -0.043645 0.245941 255 255 255
-0.200134 -0.153302 0.147457 255 255 255
-0.067207 0.169607 -0.242888 255 255 255
0.216425 0.134950 -0.104843 255 255 255
0.221268 0.128103 0.102248 255 255 255
0.202598 0.227268 0.133229 255 255 255
0.236531 -0.178933 -0.094870 255 255 255
-0.168348 0.130620 0.185421 255 255 255
0.041855 0.196352 0.179284 255 255 255
0.096621 0.225052 -0.061555 255 255 255
-0.015707 0.166219 -0.245098 255 255 255
0.060521 -0.071642 -0.239408 255 255 255
0.200666 -0.202306 0.001894 255 255 255
0.109582 0.148821 0.213174 255 255 255
-0.174497 -0.177546 -0.169395 255 255 255
0.176620 -0.132705 0.167597 255 255 255
0.222436 -0.244018 -0.084477 255 255 255
-0.119862 0.245735 0.213137 255 255 255
0.270404 0.167828 0.152166 255 255 255
0.151839 0.016837 0.206896 255 255 255
-0.120314 -0.227272 -0.070369 255 255 255
-0.076646 0.149879 -0.228702 255 255 255
-0.168782 0.167076 -0.176673 255 255 255
-0.141683 -0.237690 0.146004 255 255 255
0.166570 -0.054988 -0.197049 255 255 255
0.007583 0.035257 -0.248629 255 255 255
0.248002 0.056654 -0.029489 255 255 255
-0.196098 -0.011876 -0.135350 255 255 255
0.241461 -0.055320 -0.019425 255 255 255
-0.044545 -0.031673 -0.243366 255 255 255
-0.009756 0.220377 -0.164934 255 255 255
-0.226286 0.036183 0.105918 255 255 255
0.133090 -0.152318 0.203186 255 255 255
0.017394 -0.070903 -0.242766 255 255 255
0.251484 -0.139742 0.012599 255 255 255
0.217150 -0.093276 0.350506 255 255 255
0.272702 0.247868 0.056519 255 255 255
0.070805 0.126628 -0.234659 255 255 255
0.150534 0.113301 -0.193671 255 255 255
0.215617 -0.056216 -0.108086 255 255 255
-0.153079 0.118883 -0.189339 255 255 255
0.238744 0.017188 0.056637 255 255 255
0.167794 -0.224175 0.166112 255 255 255
0.220170 0.230128 -0.105427 255 255 255
-0.242036 0.171971 -0.050183 255 255 255
0.246342 -0.075942 0.026094 255 255 255
0.115120 0.084496 -0.209903 255 255 255
-0.223038 0.017935 0.098183 255 255 255
0.031683 -0.112492 0.245546 255 255 255
-0.112560 0.005198 -0.221167 255 255 255
0.075780 -0.137360 0.299980 255 255 255
0.312411 0.252599 0.077388 255 255 255
-0.129110 -0.077027 -0.209306 255 255 255
-0.046504 0.169014 0.244249 255 255 255
0.245699 0.103775 -0.057631 255 255 255
-0.236159 -0.064725 -0.073399 255 255 255
-0.176183 0.036519 -0.172486 255 255 255
-0.035319 0.153524 -0.234980 255 255 255
0.124402 0.091028 -0.196778 255 255 255
-0.007762 0.235976 0.147806 255 255 255
-0.022582 0.116333 -0.245031 255 255 255
-0.165831 0.228152 -0.142378 255 255 255
0.191720 -0.173743 -0.151962 255 255 255
0.226149 -0.039027 -0.093660 255 255 255
0.081606 0.068135 0.228761 255 255 255
-0.231079 -0.234631 0.033378 255 255 255
-0.149043 -0.142908 0.185123 255 255 255
0.168347 -0.016893 0.264880 255 255 255
0.181360 0.024568 -0.151312 255 255 255
-0.005014 -0.156551 0.245219 255 255 255
-0.245095 0.060423 -0.028313 255 255 255
0.245993 0.056839 0.012011 255 255 255
-0.026092 -0.154536 0.239447 255 255 255
-0.131149 -0.103401 0.205748 255 255 255
0.195616 -0.198351 -0.121748 255 255 255
-0.000701 0.248649 -0.175981 255 255 255
0.240831 -0.087322 -0.056624 255 255 255
0.150168 0.228613 0.059166 255 255 255
0.236891 -0.053997 -0.074830 255 255 255
0.239512 -0.047152 0.293160 255 255 255
-0.165688 0.072957 -0.181979 255 255 255
0.068614 -0.239219 0.244603 255 255 255
0.028266 0.208669 0.178585 255 255 255
-0.020277 0.164729 -0.248695 255 255 255
-0.169448 -0.179531 0.178394 255 255 255
-0.220613 -0.135397 -0.124537 255 255 255
-0.161925 0.010743 0.189056 255 255 255
0.227850 0.131298 -0.099338 255 255 255
-0.253725 -0.163785 -0.000966 255 255 255
0.027145 0.050908 -0.244754 255 255 255
0.234005 -0.070558 0.098917 255 255 255
-0.000796 -0.048511 0.247988 255 255 255
-0.196168 -0.025649 0.142598 255 255 255
0.251411 -0.073155 0.004599 255 255 255
0.220420 -0.062957 0.101868 255 255 255
0.070122 -0.106247 0.240576 255 255 255
0.171509 -0.058432 0.171903 255 255 255
-0.179650 0.051472 -0.164730 255 255 255
-0.197470 -0.242409 0.083333 255 255 255
-0.144008 -0.236966 0.171120 255 255 255
-0.065033 0.091395 -0.235233 255 255 255
-0.251488 0.125923 0.036769 255 255 255
-0.229295 0.020880 -0.087468 255 255 255
-0.218320 0.214770 0.018676 255 255 255
0.024706 -0.179232 0.244827 255 255 255
0.242463 0.058894 0.062464 255 255 255
0.030348 0.215215 0.232566 255 255 255
-0.005925 0.093534 0.248795 255 255 255
-0.165966 -0.238212 -0.091553 255 255 255
-0.212573 -0.126114 -0.123067 255 255 255
-0.174392 -0.132541 -0.174102 255 255 255
0.099060 -0.060029 -0.227071 255 255 255
-0.116071 0.035666 0.221825 255 255 255
0.139325 0.090062 -0.181742 255 255 255
-0.069884 0.188779 0.237635 255 255 255
0.120991 -0.186921 -0.219176 255 255 255
0.251199 -0.030270 0.000071 255 255 255
-0.143958 0.111472 -0.192244 255 255 255
0.042517 -0.055896 0.242774 255 255 255
-0.253131 -0.187238 0.005326 255 255 255
-0.121612 -0.003300 0.215779 255 255 255
0.227800 -0.023855 -0.091275 255 255 255
-0.232753 -0.157442 0.050984 255 255 255
0.065925 0.026264 0.239562 255 255 255
-0.208586 0.090758 0.123975 255 255 255
-0.210668 -0.157170 -0.109119 255 255 255
-0.236667 -0.131234 -0.066077 255 255 255
-0.177949 -0.030096 0.166162 255 255 255
0.232041 -0.151634 -0.055293 255 255 255
0.244610 -0.084976 0.129414 255 255 255
0.132520 0.223727 0.202520 255 255 255
0.240552 -0.193542 -0.015160 255 255 255
-0.181585 -0.034336 -0.166837 255 255 255
0.023075 0.176904 0.223761 255 255 255
-0.155191 0.038450 0.191541 255 255 255
0.386947 0.103513 0.246774 255 255 255
-0.208158 0.068840 0.132407 255 255 255
0.146972 0.038521 0.191038 255 255 255
-0.056880 -0.109038 -0.238473 255 255 255
0.189971 -0.055460 0.148619 255 255 255
0.292457 0.194384 0.140504 255 255 255
0.250181 0.134534 0.120331 255 255 255
0.074548 0.055026 0.232707 255 255 255
0.185420 0.084448 0.160554 255 255 255
-0.206001 0.025355 0.132742 255 255 255
0.050296 0.001459 0.238022 255 255 255
0.018402 0.210941 0.245920 255 255 255
-0.240812 0.189871 -0.071014 255 255 255
-0.185135 -0.179423 0.169978 255 255 255
0.246701 0.130146 0.047449 255 255 255
-0.115417 0.163994 -0.211163 255 255 255
-0.099589 -0.196613 -0.223687 255 255 255
0.154003 -0.239086 -0.157768 255 255 255
-0.032257 0.004072 -0.248987 255 255 255
-0.078331 -0.063801 -0.232711 255 255 255
-0.101608 -0.062218 -0.223959 255 255 255
0.057720 0.077173 -0.238770 255 255 255
-0.010509 0.249431 -0.121416 255 255 255
-0.212416 0.038130 0.127712 255 255 255
0.206086 0.129877 0.083352 255 255 255
0.109579 0.194194 0.060822 255 255 255
-0.010307 -0.046913 -0.247396 255 255 255
-0.250087 0.139414 -0.001982 255 255 255
-0.224233 -0.237411 0.091078 255 255 255
-0.080075 -0.069828 -0.237848 255 255 255
0.097579 -0.139435 0.429340 255 255 255
-0.102892 -0.149207 0.228045 255 255 255
-0.162835 0.194078 -0.207589 255 255 255
-0.176178 0.146984 0.113937 255 255 255
-0.235132 -0.186816 -0.058610 255 255 255
-0.190095 -0.014774 -0.157653 255 255 255
-0.246931 0.119769 0.024389 255 255 255
0.016386 0.246517 0.195796 255 255 255
-0.037807 -0.212988 0.426675 255 255 255
-0.021837 0.243723 -0.239565 255 255 255
0.224402 0.105599 0.107549 255 255 255
0.080959 0.093180 0.230463 255 255 255
-0.144079 -0.119064 -0.194465 255 255 255
0.133144 0.175087 -0.202264 255 255 255
-0.220172 -0.126784 -0.094617 255 255 255
-0.150716 0.044327 0.191796 255 255 255
0.125857 -0.182496 -0.214690 255 255 255
0.220098 -0.027883 -0.098496 255 255 255
-0.242487 -0.145191 0.073739 255 255 255
-0.109082 -0.233554 0.217985 255 255 255
-0.208371 -0.036254 -0.133219 255 255 255
-0.218133 -0.250639 -0.096356 255 255 255
0.149434 -0.137201 -0.184738 255 255 255
-0.178155 -0.186836 -0.169086 255 255 255
0.173356 0.206480 0.052722 255 255 255
-0.118265 -0.077842 -0.218498 255 255 255
0.223127 0.234988 -0.151113 255 255 255
0.003191 0.147012 -0.243028 255 255 255
0.159133 0.231268 -0.122443 255 255 255
0.234160 -0.185884 -0.066955 255 255 255
0.242151 0.074672 0.052972 255 255 255
0.197368 0.118658 0.157407 255 255 255
-0.229603 0.035137 -0.092705 255 255 255
-0.189728 -0.231458 0.001194 255 255 255
0.118659 0.042820 -0.212944 255 255 255
-0.063760 0.022299 0.245014 255 255 255
0.052577 -0.245793 -0.216036 255 255 255
0.234588 -0.198787 0.086132 255 255 255
-0.144514 -0.181731 0.209442 255 255 255
-0.013989 0.215358 0.248035 255 255 255
0.242764 -0.113035 -0.036047 255 255 255
0.243243 0.192512 0.041282 255 255 255
0.236171 0.228756 0.125695 255 255 255
0.239538 0.246510 -0.018219 255 255 255
0.239340 -0.015395 0.014897 255 255 255
-0.195373 0.140284 -0.150613 255 255 255
0.124703 -0.084409 0.296597 255 255 255
-0.167490 0.084354 -0.170484 255 255 255
-0.243662 0.175371 -0.044143 255 255 255
-0.227134 -0.205523 -0.102549 255 255 255
-0.116223 -0.113537 0.212115 255 255 255
0.157531 0.078300 0.187051 255 255 255
-0.001319 -0.021569 0.243674 255 255 255
-0.099469 -0.206753 0.216763 255 255 255
0.126502 -0.136837 -0.212353 255 255 255
0.248840 0.156665 0.023703 255 255 255
-0.245826 0.083998 -0.015465 255 255 255
0.020215 -0.168852 0.303183 255 255 255
0.141728 -0.052678 0.204852 255 255 255
0.203982 -0.192824 0.152821 255 255 255
0.067687 0.119742 -0.229931 255 255 255
0.152084 -0.174086 -0.182612 255 255 255
0.111248 0.077424 -0.214163 255 255 255
0.074758 -0.064680 -0.232730 255 255 255
0.163146 0.159178 -0.189276 255 255 255
0.192035 -0.098697 0.154611 255 255 255
0.073702 -0.235938 -0.120311 255 255 255
0.225004 0.074073 0.111048 255 255 255
0.247494 -0.002810 0.024575 255 255 255
-0.013096 0.015076 -0.242610 255 255 255
0.136663 -0.094415 0.212703 255 255 255
0.183523 -0.240119 -0.039540 255 255 255
-0.212270 -0.201814 -0.126844 255 255 255
0.198981 0.133921 -0.137962 255 255 255
-0.031153 0.072533 -0.242824 255 255 255
-0.124709 -0.059554 0.215217 255 255 255
-0.095708 -0.017427 -0.220202 255 255 255
0.208918 -0.228698 0.103126 255 255 255
-0.005192 -0.245424 0.272727 255 255 255
-0.220503 -0.100469 -0.129452 255 255 255
0.246581 -0.086900 -0.021038 255 255 255
-0.249190 -0.138311 -0.060494 255 255 255
-0.236564 0.060577 0.064792 255 255 255
0.190792 -0.052307 -0.148888 255 255 255
-0.118861 0.129700 -0.215408 255 255 255
0.241818 0.229510 0.043246 255 255 255
0.204398 -0.065943 -0.125900 255 255 255
-0.205058 -0.019208 0.137847 255 255 255
0.130562 0.052372 0.212941 255 255 255
0.156396 -0.007369 0.183625 255 255 255
0.253733 0.192872 0.081206 255 255 255
0.275238 0.019454 0.344307 255 255 255
-0.207798 -0.151053 0.124017 255 255 255
-0.247420 0.170529 0.017655 255 255 255
-0.088089 0.109936 0.230340 255 255 255
-0.228907 -0.186988 0.081853 255 255 255
-0.143188 0.037812 0.193240 255 255 255
-0.110876 0.097702 0.212890 255 255 255
-0.237097 -0.088073 0.053984 255 255 255
-0.115183 0.218460 0.210070 255 255 255
0.233331 -0.229701 -0.080871 255 255 255
-0.238410 0.231475 0.060877 255 255 255
0.224000 -0.160602 -0.099180 255 255 255
-0.224633 -0.078679 0.105498 255 255 255
-0.095834 0.211422 0.265526 255 255 255
0.237066 -0.076510 -0.063243 255 255 255
-0.036304 -0.176046 -0.241800 255 255 255
-0.214129 -0.251955 0.058553 255 255 255
0.250879 -0.224911 0.031436 255 255 255
0.185850 0.178837 -0.158122 255 255 255
0.241386 0.156055 0.071672 255 255 255
-0.108811 0.235529 0.099534 255 255 255
-0.138314 -0.033935 -0.206702 255 255 255
0.038574 0.002099 0.249239 255 255 255
-0.214435 0.037146 0.108422 255 255 255
-0.096720 -0.132115 0.219638 255 255 255
-0.141664 -0.007242 0.204500 255 255 255
-0.220493 0.199874 0.031121 255 255 255
0.164813 -0.146412 0.190494 255 255 255
0.148127 0.227060 -0.186648 255 255 255
0.102653 -0.098286 0.235157 255 255 255
-0.139985 0.029212 0.210844 255 255 255
0.028029 0.014521 -0.246864 255 255 255
-0.027333 -0.177533 0.282444 255 255 255
0.239021 0.073281 0.058798 255 255 255
-0.237334 0.003764 0.038498 255 255 255
-0.042486 -0.222244 -0.196472 255 255 255
-0.127298 -0.075244 0.183763 255 255 255
0.094339 -0.041831 0.236352 255 255 255
-0.213155 0.014213 -0.112852 255 255 255
0.002820 0.187314 0.241540 255 255 255
-0.242253 -0.215199 -0.042657 255 255 255
-0.227404 0.069468 0.103214 255 255 255
0.233432 0.183858 -0.026453 255 255 255
-0.220862 0.047646 0.104019 255 255 255
0.184056 0.110745 -0.158093 255 255 255
-0.189652 -0.201761 0.156493 255 255 255
0.115369 0.179269 -0.219021 255 255 255
0.277974 0.197369 0.167599 255 255 255
0.231397 -0.207014 -0.079877 255 255 255
-0.225133 0.238716 0.021646 255 255 255
0.004716 0.171520 -0.235679 255 255 255
0.080680 0.181815 -0.228224 255 255 255
-0.246637 -0.071850 0.001372 255 255 255
0.076001 -0.006288 0.236026 255 255 255
-0.119044 -0.091336 -0.213023 255 255 255
0.227288 0.116582 0.168625 255 255 255
0.257588 0.159163 0.103951 255 255 255
0.092209 0.242348 0.107597 255 255 255
0.073110 -0.139854 0.236940 255 255 255
0.134245 -0.056207 0.292777 255 255 255
-0.085848 -0.182517 0.235260 255 255 255
0.148603 0.146102 0.196797 255 255 255
-0.228476 0.199146 0.094058 255 255 255
0.118604 0.143082 -0.218780 255 255 255
0.234651 -0.072533 -0.059592 255 255 255
0.236870 -0.138883 0.070507 255 255 255
-0.196482 0.035927 0.147633 255 255 255
0.247504 -0.213085 -0.028968 255 255 255
-0.247385 0.019644 0.009905 255 255 255
-0.002982 0.185777 0.231372 255 255 255
-0.205738 -0.236957 0.113320 255 255 255
0.122644 -0.243566 0.060499 255 255 255
0.232591 0.041065 -0.076460 255 255 255
-0.238375 0.029522 -0.040827 255 255 255
0.198483 0.021956 -0.135865 255 255 255
0.166603 -0.051086 0.199936 255 255 255
0.246224 0.003467 -0.039160 255 255 255
-0.240343 -0.208568 -0.067020 255 255 255
0.225863 0.214081 -0.118331 255 255 255
0.022033 0.248618 -0.131617 255 255 255
0.231102 -0.202927 -0.004000 255 255 255
-0.171587 0.107034 0.177076 255 255 255
-0.249803 0.061115 0.038796 255 255 255
0.096750 -0.154812 0.226205 255 255 255
-0.230598 -0.058022 -0.080792 255 255 255
-0.232089 0.196367 -0.054751 255 255 255
0.178985 -0.048481 -0.165764 255 255 255
-0.236563 0.025895 -0.024877 255 255 255
-0.211904 -0.186036 0.124307 255 255 255
0.165557 0.105748 -0.173244 255 255 255
0.310678 0.274450 0.076920 255 255 255
-0.068045 0.060917 -0.238546 255 255 255
-0.028685 0.035064 0.247563 255 255 255
0.000930 0.225931 0.229613 255 255 255
-0.194734 0.008906 -0.145509 255 255 255
0.105924 -0.201705 -0.219304 255 255 255
0.129764 -0.036099 0.297075 255 255 255
-0.240077 -0.183999 0.064394 255 255 255
-0.239853 -0.165138 -0.036906 255 255 255
0.098890 0.122376 -0.222335 255 255 255
0.243316 -0.040746 0.326836 255 255 255
0.156920 0.051271 0.187615 255 255 255
0.205441 -0.092099 -0.130199 255 255 255
0.050557 -0.126749 0.243759 255 255 255
0.087812 0.080700 0.228090 255 255 255
-0.013858 -0.197402 0.246196 255 255 255
0.186451 -0.229241 0.007831 255 255 255
0.058156 -0.101828 0.248137 255 255 255
-0.069013 -0.028577 0.228469 255 255 255
0.221071 -0.206628 -0.059540 255 255 255
0.184692 -0.203930 -0.159583 255 255 255
-0.018229 0.008957 0.241965 255 255 255
-0.180645 -0.006807 0.160406 255 255 255
0.117994 -0.109174 0.205805 255 255 255
-0.084532 -0.213217 -0.214818 255 255 255
-0.036679 -0.106675 -0.246333 255 255 255
0.237850 0.018626 0.065473 255 255 255
0.137045 -0.190804 0.208128 255 255 255
0.220945 0.215102 0.001581 255 255 255
0.062955 0.103004 -0.234126 255 255 255
0.105132 -0.252374 -0.226432 255 255 255
-0.164977 -0.237556 -0.184127 255 255 255
-0.035339 0.212054 -0.220507 255 255 255
-0.220709 -0.109358 0.086418 255 255 255
0.215053 0.154643 0.125287 255 255 255
-0.178687 -0.052739 -0.138939 255 255 255
-0.222917 -0.016921 -0.107268 255 255 255
0.121755 -0.156568 0.226947 255 255 255
0.205416 0.112369 0.137998 255 255 255
-0.213053 0.211526 -0.113246 255 255 255
0.035552 -0.243722 0.199346 255 255 255
-0.179563 0.044655 0.163525 255 255 255
0.131002 -0.122400 -0.208476 255 255 255
-0.181452 0.205644 0.103861 255 255 255
0.245585 0.171550 0.055225 255 255 255
0.153600 -0.098099 -0.186764 255 255 255
-0.081449 -0.183190 -0.231259 255 255 255
0.026184 -0.171613 -0.237584 255 255 255
0.137349 -0.088059 -0.206171 255 255 255
0.109501 -0.244430 0.177885 255 255 255
-0.057060 0.252350 -0.095630 255 255 255
-0.023161 0.159279 0.243374 255 255 255
-0.024195 0.171595 0.248810 255 255 255
0.096757 0.218240 0.212976 255 255 255
-0.067878 -0.085086 0.238396 255 255 255
-0.099376 -0.194952 -0.225233 255 255 255
-0.105072 -0.163597 -0.225625 255 255 255
-0.171410 -0.018649 0.178418 255 255 255
-0.148454 -0.207945 0.139168 255 255 255
-0.215900 0.079237 0.124305 255 255 255
-0.201477 0.217209 -0.134385 255 255 255
-0.117643 0.061115 -0.212667 255 255 255
-0.195395 0.220220 0.139951 255 255 255
-0.211496 -0.027922 0.127248 255 255 255
0.198511 0.202286 0.058108 255 255 255
0.047234 0.177712 -0.177255 255 255 255
-0.205515 -0.174921 -0.144730 255 255 255
0.050513 -0.150235 0.234519 255 255 255
0.244243 -0.220197 0.036991 255 255 255
-0.235764 0.166997 0.077836 255 255 255
0.242829 0.058907 0.006189 255 255 255
0.237547 0.090461 0.079341 255 255 255
-0.249359 0.199200 -0.001546 255 255 255
0.186021 0.235306 0.063571 255 255 255
0.214112 -0.186423 0.119751 255 255 255
-0.233088 -0.236847 -0.059353 255 255 255
0.236578 -0.106136 0.066033 255 255 255
-0.134921 -0.082526 -0.207810 255 255 255
0.037531 -0.121768 -0.244701 255 255 255
0.102641 -0.000391 0.217054 255 255 255
0.164024 -0.238338 0.065125 255 255 255
0.229767 -0.193602 0.097072 255 255 255
-0.219250 -0.111935 0.110865 255 255 255
-0.052369 0.083564 0.244375 255 255 255
0.176222 0.226027 -0.168667 255 255 255
-0.017515 -0.253232 -0.174222 255 255 255
0.249181 -0.162137 -0.054853 255 255 255
0.193947 0.250744 0.062577 255 255 255
-0.015178 0.208065 -0.249070 255 255 255
-0.225653 -0.015238 0.108915 255 255 255
0.255101 0.011453 0.290789 255 255 255
0.049256 -0.148847 -0.245634 255 255 255
0.061610 -0.029972 -0.249412 255 255 255
-0.076474 -0.012016 -0.228898 255 255 255
-0.022429 0.250010 -0.197140 255 255 255
-0.152185 0.077473 -0.186765 255 255 255
0.191883 -0.077359 0.429027 255 255 255
0.005258 -0.247553 -0.167708 255 255 255
-0.201302 0.073299 -0.108655 255 255 255
0.158019 -0.062429 0.199227 255 255 255
-0.248891 0.201987 0.028536 255 255 255
0.117479 0.146969 0.224680 255 255 255
-0.217772 0.082669 -0.110462 255 255 255
0.255821 0.049229 0.256944 255 255 255
0.048079 0.125371 0.239580 255 255 255
-0.081865 0.034875 0.228555 255 255 255
0.248018 -0.240580 0.007476 255 255 255
0.016830 -0.141268 -0.246226 255 255 255
-0.100890 -0.021803 0.216629 255 255 255
0.088209 -0.013859 -0.225123 255 255 255
0.180883 -0.048433 -0.145680 255 255 255
0.116323 -0.211761 -0.187107 255 255 255
-0.222454 -0.206628 0.108883 255 255 255
0.284607 0.080463 0.277942 255 255 255
0.103846 0.011801 -0.228277 255 255 255
-0.213199 0.199600 0.122051 255 255 255
0.076346 -0.240583 0.208751 255 255 255
0.156908 -0.240580 -0.126207 255 255 255
0.126574 -0.066056 0.212683 255 255 255
0.172515 -0.007807 0.173094 255 255 255
0.211116 0.050649 0.135259 255 255 255
0.115460 -0.075850 -0.213945 255 255 255
0.131241 -0.242930 -0.022383 255 255 255
0.079340 -0.249371 0.202570 255 255 255
0.154824 0.194771 -0.165813 255 255 255
0.443951 0.148086 0.198853 255 255 255
0.166805 -0.013825 0.167497 255 255 255
-0.044287 0.190308 0.236142 255 255 255
0.039812 -0.022790 0.230057 255 255 255
-0.248196 0.065130 -0.026345 255 255 255
0.214807 0.062721 0.109517 255 255 255
-0.130449 0.006467 -0.208100 255 255 255
0.041442 -0.155272 -0.246465 255 255 255
-0.136256 0.084788 -0.197164 255 255 255
-0.036863 0.157131 -0.231622 255 255 255
0.178498 0.036745 -0.167957 255 255 255
-0.172454 0.160008 0.175625 255 255 255
-0.007885 -0.195085 0.220536 255 255 255
0.056201 -0.122031 -0.213570 255 255 255
-0.232568 0.199768 -0.003244 255 255 255
-0.170480 -0.124331 0.179012 255 255 255
0.215083 0.044663 0.120895 255 255 255
0.307101 0.208315 0.124353 255 255 255
-0.180374 -0.136417 0.169514 255 255 255
0.237965 0.005373 0.068582 255 255 255
0.004362 0.111442 -0.253631 255 255 255
0.178257 0.114493 0.177049 255 255 255
0.233078 -0.223465 0.078395 255 255 255
0.135854 -0.044165 0.210435 255 255 255
0.031632 0.137458 -0.246064 255 255 255
0.115120 -0.243694 0.144609 255 255 255
-0.036575 -0.018518 -0.246999 255 255 255
0.223391 -0.159209 0.117788 255 255 255
0.184879 0.063994 -0.154444 255 255 255
-0.162359 -0.069008 0.188487 255 255 255
0.001592 0.156264 -0.245424 255 255 255
0.036864 -0.247384 -0.138846 255 255 255
-0.047254 -0.206275 0.324466 255 255 255
-0.038293 -0.077483 0.232741 255 255 255
-0.010882 -0.253171 -0.181471 255 255 255
-0.240015 -0.127641 -0.045182 255 255 255
0.108349 0.180929 0.215619 255 255 255
0.139678 -0.058740 0.202263 255 255 255
-0.103310 -0.034383 -0.223645 255 255 255
0.044007 -0.147008 -0.235834 255 255 255
0.159619 -0.245310 0.169400 255 255 255
0.003655 -0.203496 -0.247383 255 255 255
-0.014970 0.112849 0.243197 255 255 255
0.267334 0.211808 -0.023979 255 255 255
0.198631 0.043958 0.209607 255 255 255
0.293561 0.219363 0.034579 255 255 255
0.240781 0.071866 0.068767 255 255 255
0.247874 -0.106096 0.011829 255 255 255
-0.202785 -0.116194 0.144030 255 255 255
0.178460 0.008272 -0.146042 255 255 255
0.213993 -0.036497 0.122105 255 255 255
0.231776 -0.023548 -0.086967 255 255 255
-0.202430 -0.239295 -0.106088 255 255 255
0.225317 -0.103243 -0.104780 255 255 255
0.001147 0.024471 0.249311 255 255 255
0.093360 -0.122156 0.233447 255 255 255
0.222288 -0.019071 0.118355 255 255 255
0.194628 -0.062518 0.146954 255 255 255
-0.089190 0.140184 -0.231664 255 255 255
-0.023313 -0.047970 -0.243733 255 255 255
0.390498 0.165237 0.213232 255 255 255
0.271843 0.067689 0.201285 255 255 255
0.308466 0.235732 0.100271 255 255 255
-0.244996 0.087931 -0.037018 255 255 255
-0.247270 -0.172900 0.008690 255 255 255
-0.058734 0.157305 0.227167 255 255 255
0.152454 -0.168626 0.199037 255 255 255
0.019855 -0.166216 0.211175 255 255 255
-0.046369 -0.001893 -0.240818 255 255 255
-0.211961 0.243221 -0.017751 255 255 255
0.237536 0.126714 -0.061747 255 255 255
-0.208909 0.220068 0.130207 255 255 255
-0.243010 -0.119838 0.066556 255 255 255
0.236489 0.078676 -0.038993 255 255 255
-0.233032 0.163462 -0.067015 255 255 255
-0.005713 0.175018 -0.229651 255 255 255
0.229649 0.112964 0.101915 255 255 255
0.144025 0.186829 -0.206206 255 255 255
0.248762 0.135558 -0.007277 255 255 255
0.262117 0.200018 0.052127 255 255 255
0.265932 0.073871 0.222778 255 255 255
-0.047620 0.202574 0.239165 255 255 255
0.110408 -0.229125 -0.133410 255 255 255
0.140349 -0.165012 0.202467 255 255 255
-0.078867 0.051169 -0.242665 255 255 255
0.093116 -0.160389 0.233392 255 255 255
0.245976 -0.223137 0.066933 255 255 255
0.174555 -0.229461 -0.021912 255 255 255
0.124163 0.092495 0.232840 255 255 255
-0.060953 -0.244523 -0.218972 255 255 255
-0.230385 0.168607 -0.079124 255 255 255
0.244128 0.158540 -0.020064 255 255 255
0.237916 0.021955 -0.025703 255 255 255
0.150401 -0.143548 0.190870 255 255 255
-0.119699 0.108941 0.212541 255 255 255
0.214069 -0.114822 0.132977 255 255 255
0.248584 -0.148363 0.023952 255 255 255
0.139332 -0.237130 0.161473 255 255 255
-0.017838 0.079565 0.248518 255 255 255
0.222075 -0.133422 0.115331 255 255 255
0.242723 0.102919 -0.025097 255 255 255
-0.243689 -0.031579 0.037791 255 255 255
0.019201 0.104141 0.242350 255 255 255
0.110393 -0.215887 0.232392 255 255 255
0.247447 0.107046 -0.035327 255 255 255
-0.214369 -0.094808 -0.120313 255 255 255
0.102714 0.035132 -0.219048 255 255 255
0.181922 0.135603 -0.174522 255 255 255
0.236958 0.001966 0.054996 255 255 255
0.182970 0.206440 0.181132 255 255 255
0.113321 0.244799 -0.172953 255 255 255
-0.247311 0.021872 0.031296 255 255 255
-0.096562 0.241761 0.095010 255 255 255
-0.214306 0.159972 0.116396 255 255 255
0.169060 0.222054 -0.009749 255 255 255
0.122281 -0.111334 0.256231 255 255 255
0.354582 0.207985 0.153168 255 255 255
0.015737 0.135755 -0.244476 255 255 255
-0.132584 0.022674 -0.208784 255 255 255
0.208924 0.081146 0.165183 255 255 255
-0.061709 -0.149723 0.237785 255 255 255
0.144412 0.220769 -0.198064 255 255 255
0.245564 0.174786 -0.011648 255 255 255
-0.093086 0.119599 -0.222151 255 255 255
0.049971 -0.066905 0.244343 255 255 255
-0.188907 -0.218179 0.162302 255 255 255
0.197931 0.088306 -0.133017 255 255 255
0.143292 0.057431 0.205048 255 255 255
-0.250554 -0.134667 0.003596 255 255 255
0.032446 -0.151752 0.250080 255 255 255
-0.138142 0.076739 -0.204372 255 255 255
0.054689 0.206425 0.243527 255 255 255
0.121078 0.023128 0.215878 255 255 255
-0.144311 -0.178169 -0.199634 255 255 255
0.200989 -0.208731 0.124124 255 255 255
0.244016 0.094995 -0.025471 255 255 255
-0.064206 -0.074999 0.220928 255 255 255
0.114051 -0.210846 -0.087988 255 255 255
-0.176872 0.197965 -0.170628 255 255 255
0.067834 -0.016060 -0.231897 255 255 255
0.194515 0.066341 0.153738 255 255 255
0.216680 0.020120 -0.112072 255 255 255
-0.099395 -0.232677 -0.244932 255 255 255
-0.058330 -0.225341 0.243729 255 255 255
-0.087648 0.098974 0.229117 255 255 255
-0.123280 -0.093890 0.207805 255 255 255
-0.241565 0.116969 0.024421 255 255 255
0.160154 -0.048914 -0.188660 255 255 255
0.021251 -0.164033 0.243187 255 255 255
0.342660 0.094043 0.227987 255 255 255
-0.198164 -0.090411 -0.139336 255 255 255
-0.147170 0.204378 -0.194625 255 255 255
0.172269 -0.092349 0.187521 255 255 255
-0.052576 0.137471 -0.246855 255 255 255
0.193676 0.068296 0.148709 255 255 255
-0.219874 0.180948 -0.113838 255 255 255
0.076997 0.246732 -0.223462 255 255 255
-0.147705 -0.041323 0.197439 255 255 255
0.239327 -0.150724 0.108332 255 255 255
-0.220589 -0.012006 -0.105042 255 255 255
0.232518 -0.128848 -0.080232 255 255 255
-0.247370 -0.150462 0.016536 255 255 255
-0.112656 -0.200819 0.217866 255 255 255
0.005360 0.057323 -0.247057 255 255 255
0.044536 0.154394 -0.229982 255 255 255
0.147380 -0.220629 0.194863 255 255 255
-0.006643 0.193530 0.244992 255 255 255
-0.247435 0.037227 0.009455 255 255 255
-0.114231 -0.228653 0.115750 255 255 255
-0.190445 -0.113214 -0.156746 255 255 255
-0.027798 -0.243329 0.245984 255 255 255
-0.152878 -0.216776 -0.193657 255 255 255
-0.026910 -0.248168 0.222777 255 255 255
-0.152037 0.152117 0.189125 255 255 255
-0.066043 0.167278 -0.233506 255 255 255
-0.132287 -0.010668 -0.216145 255 255 255
0.139586 0.245753 0.177553 255 255 255
-0.059219 -0.247545 -0.091591 255 255 255
0.175802 0.169203 0.144909 255 255 255
-0.245591 0.151935 0.056312 255 255 255
0.030723 0.114008 0.206372 255 255 255
0.088095 -0.203803 0.231222 255 255 255
-0.149300 0.152487 -0.195629 255 255 255
0.228398 -0.121209 0.093543 255 255 255
-0.142964 -0.105491 0.196512 255 255 255
0.171665 0.155835 0.178965 255 255 255
-0.143236 0.049873 0.197586 255 255 255
0.082203 0.090598 -0.236870 255 255 255
0.003046 -0.128655 0.250831 255 255 255
0.171044 -0.009957 0.214252 255 255 255
0.117628 -0.142280 0.257288 255 255 255
0.183747 -0.062127 -0.163346 255 255 255
0.054004 -0.053245 -0.236036 255 255 255
0.204599 -0.038336 0.126971 255 255 255
-0.204405 -0.191781 -0.164686 255 255 255
0.226987 -0.132499 0.092334 255 255 255
-0.063361 -0.218487 -0.207374 255 255 255
-0.153420 0.129048 0.193714 255 255 255
0.058056 0.208631 0.238678 255 255 255
-0.214139 -0.190742 0.064770 255 255 255
0.201891 -0.017150 -0.142831 255 255 255
-0.189124 0.034231 -0.156292 255 255 255
-0.043270 -0.012685 0.241794 255 255 255
0.006812 -0.073034 -0.247632 255 255 255
-0.214609 0.088746 -0.103227 255 255 255
0.013236 -0.217823 -0.049998 255 255 255
-0.222371 0.017442 0.111956 255 255 255
-0.112035 -0.020666 0.221594 255 255 255
-0.234799 -0.136444 -0.080497 255 255 255
0.243287 0.010541 -0.024944 255 255 255
0.251509 -0.110405 -0.027031 255 255 255
-0.238989 -0.111460 -0.041252 255 255 255
-0.019881 -0.191686 -0.250761 255 255 255
0.115791 -0.144195 0.216076 255 255 255
0.296702 0.140528 0.194719 255 255 255
0.130817 0.120740 0.212326 255 255 255
-0.136813 -0.082244 -0.198405 255 255 255
0.097925 0.180522 0.225186 255 255 255
0.198416 -0.016235 -0.149643 255 255 255
0.169104 0.240013 -0.035945 255 255 255
-0.046756 -0.051280 -0.242652 255 255 255
-0.205448 -0.172203 -0.144817 255 255 255
-0.040699 -0.182467 0.244749 255 255 255
-0.231624 0.155494 0.090537 255 255 255
0.244707 -0.001911 0.015104 255 255 255
-0.205954 -0.142247 0.134579 255 255 255
0.245432 -0.074885 0.019253 255 255 255
0.385534 0.194476 0.180941 255 255 255
0.009087 -0.122477 0.243860 255 255 255
-0.244495 -0.102684 -0.025761 255 255 255
-0.165595 0.123063 -0.179504 255 255 255
0.121387 -0.025567 -0.216612 255 255 255
0.171498 -0.113684 0.176878 255 255 255
0.086644 -0.249435 -0.174618 255 255 255
0.017827 0.188027 0.248708 255 255 255
-0.200518 0.014071 0.139834 255 255 255
-0.108097 -0.229580 0.192249 255 255 255
-0.000268 0.009949 0.247042 255 255 255
-0.056701 0.232729 -0.234101 255 255 255
0.124130 -0.158933 -0.215754 255 255 255
0.233796 0.166971 0.086691 255 255 255
-0.119222 0.192481 0.207760 255 255 255
-0.165827 0.181097 -0.181713 255 255 255
0.129815 0.228235 0.209190 255 255 255
-0.246540 0.020667 0.035310 255 255 255
-0.169022 0.234728 -0.104802 255 255 255
-0.178161 0.034437 -0.174893 255 255 255
-0.091326 0.245426 -0.207719 255 255 255
0.086848 -0.165299 -0.230638 255 255 255
0.222872 -0.087404 0.099753 255 255 255
0.234498 -0.170806 -0.092475 255 255 255
0.184442 -0.190793 -0.151392 255 255 255
-0.178964 -0.012114 -0.168316 255 255 255
-0.239676 0.065091 0.071263 255 255 255
-0.247945 0.117988 0.013714 255 255 255
-0.006937 0.237583 0.152954 255 255 255
0.113083 -0.237921 -0.012090 255 255 255
-0.027831 -0.210551 -0.247393 255 255 255
-0.245345 0.204909 0.016993 255 255 255
0.165943 -0.090631 0.195662 255 255 255
-0.123949 -0.114188 -0.208771 255 255 255
-0.248216 -0.025823 -0.025272 255 255 255
0.147316 -0.049920 0.234707 255 255 255
-0.129922 0.229098 0.205081 255 255 255
-0.139453 0.244031 -0.154000 255 255 255
0.246693 0.116199 -0.010960 255 255 255
-0.170619 0.244002 -0.120470 255 255 255
0.144162 -0.009857 -0.199353 255 255 255
-0.240990 0.005579 -0.036684 255 255 255
0.194996 -0.123138 0.145966 255 255 255
0.238410 0.195076 0.090439 255 255 255
0.189936 -0.211784 -0.042453 255 255 255
0.247139 -0.242837 0.041887 255 255 255
-0.072059 0.228366 0.170222 255 255 255
0.201345 -0.128935 0.150621 255 255 255
-0.246003 -0.006050 0.020739 255 255 255
-0.031353 -0.041427 0.225477 255 255 255
-0.144438 0.229669 0.134104 255 255 255
0.231341 0.162729 0.125046 255 255 255
0.247333 0.120322 -0.012365 255 255 255
0.147860 0.192700 -0.081727 255 255 255
-0.172726 0.220823 0.009789 255 255 255
-0.218470 -0.100399 0.106893 255 255 255
-0.038889 0.244280 -0.132514 255 255 255
0.018147 0.047031 -0.238981 255 255 255
0.082050 -0.014100 0.230906 255 255 255
0.244031 0.216073 -0.014466 255 255 255
-0.230538 -0.066042 0.081815 255 255 255
-0.239397 0.128097 0.035982 255 255 255
-0.233815 -0.193344 0.060556 255 255 255
-0.040982 0.145246 0.241367 255 255 255
-0.074737 -0.057463 0.229074 255 255 255
0.212937 -0.014628 0.201617 255 255 255
0.246442 -0.015232 0.043336 255 255 255
0.248590 0.148095 0.037024 255 255 255
-0.218666 -0.135418 0.098843 255 255 255
-0.060383 0.132030 -0.231722 255 255 255
0.039683 -0.180766 -0.239989 255 255 255
0.067203 0.002184 0.241608 255 255 255
0.072660 0.116667 0.231096 255 255 255
-0.023788 -0.159802 0.249921 255 255 255
0.126194 0.243184 -0.095777 255 255 255
0.187458 0.249985 0.046757 255 255 255
0.214254 -0.031322 0.121131 255 255 255
0.212090 -0.193078 0.120275 255 255 255
0.164670 -0.218671 -0.187338 255 255 255
-0.232319 -0.059449 0.070628 255 255 255
0.311518 0.146862 0.253113 255 255 255
-0.181947 0.226408 0.165643 255 255 255
-0.103826 0.120265 -0.218185 255 255 255
-0.205020 0.109663 0.135873 255 255 255
-0.184571 -0.044362 -0.155093 255 255 255
0.170652 0.189774 -0.177049 255 255 255
-0.202931 -0.100520 -0.133691 255 255 255
-0.245973 -0.142945 0.050487 255 255 255
0.153470 0.026083 -0.194185 255 255 255
0.211892 0.003545 -0.130948 255 255 255
-0.148690 0.173675 0.195354 255 255 255
-0.244040 0.155428 0.062719 255 255 255
-0.120629 0.184022 -0.210037 255 255 255
-0.109423 -0.223264 -0.103834 255 255 255
-0.143162 0.171959 -0.197644 255 255 255
0.007061 0.131721 -0.247778 255 255 255
-0.164366 -0.101465 -0.178675 255 255 255
0.118462 -0.149072 0.374272 255 255 255
-0.126309 0.016597 0.214476 255 255 255
0.260497 0.208754 0.027615 255 255 255
0.235559 0.131654 -0.078548 255 255 255
0.190907 -0.243628 -0.122042 255 255 255
0.185807 -0.246119 -0.003093 255 255 255
0.112463 -0.131496 0.277162 255 255 255
0.197659 0.242732 0.153052 255 255 255
-0.244638 0.236876 -0.041567 255 255 255
-0.106040 -0.218923 -0.227409 255 255 255
0.118673 0.176846 -0.210946 255 255 255
0.284786 0.049540 0.276704 255 255 255
-0.206244 -0.242200 -0.003358 255 255 255
0.241132 -0.125475 0.058065 255 255 255
0.247362 -0.201187 -0.033357 255 255 255
-0.164013 0.191295 0.189735 255 255 255
-0.202263 0.249860 -0.039220 255 255 255
0.114949 -0.175658 0.226552 255 255 255
0.237075 0.179859 -0.059457 255 255 255
-0.141947 -0.206147 0.204526 255 255 255
-0.175516 0.022339 -0.173507 255 255 255
0.099450 -0.062842 0.229694 255 255 255
-0.212493 0.016308 0.117099 255 255 255
0.232421 -0.042673 -0.090041 255 255 255
0.074688 0.240848 0.042166 255 255 255
0.206574 0.194266 -0.135089 255 255 255
-0.089365 -0.221360 0.425480 255 255 255
0.258335 -0.131931 0.073357 255 255 255
0.249735 0.060011 0.011949 255 255 255
0.155940 -0.057088 0.272259 255 255 255
0.195815 -0.230607 0.140999 255 255 255
-0.096131 -0.148543 0.226457 255 255 255
0.233799 -0.059717 0.079058 255 255 255
0.200124 0.221410 0.092110 255 255 255
0.142069 -0.069900 0.206550 255 255 255
-0.216946 0.075664 0.127489 255 255 255
0.041767 -0.080941 0.241622 255 255 255
-0.203182 -0.073477 0.133831 255 255 255
0.132402 0.200940 0.200529 255 255 255
0.238530 -0.197584 0.137737 255 255 255
0.180552 0.090003 0.153665 255 255 255
-0.057919 -0.189887 -0.237510 255 255 255
0.192386 0.160337 0.160265 255 255 255
0.107942 0.023515 0.219329 255 255 255
0.130707 0.041825 -0.215081 255 255 255
-0.243432 0.115250 0.037684 255 255 255
-0.188569 -0.106395 0.152960 255 255 255
0.254739 0.242487 0.098201 255 255 255
-0.237924 -0.053400 -0.057085 255 255 255
0.212113 0.120058 0.113725 255 255 255
-0.212780 -0.018603 0.124316 255 255 255
-0.056232 0.248746 -0.194116 255 255 255
0.088436 0.242998 0.202174 255 255 255
-0.215428 -0.007081 0.108153 255 255 255
-0.102969 0.201080 0.214613 255 255 255
-0.037600 0.187476 -0.235020 255 255 255
-0.018375 -0.063865 0.247694 255 255 255
-0.250139 0.081483 -0.032718 255 255 255
0.080929 0.072076 0.235914 255 255 255
0.240272 -0.131219 -0.072697 255 255 255
-0.008427 -0.084075 0.245742 255 255 255
-0.251783 -0.188062 -0.006566 255 255 255
0.244591 -0.054715 0.044013 255 255 255
0.124397 0.170040 0.212033 255 255 255
0.235721 -0.033071 -0.072777 255 255 255
0.245302 0.139581 0.075338 255 255 255
-0.247478 0.069896 -0.002444 255 255 255
-0.057197 -0.089834 0.236145 255 255 255
0.029867 -0.006777 0.247564 255 255 255
0.204451 -0.062138 0.347942 255 255 255
-0.220673 0.189748 -0.107625 255 255 255
-0.104867 0.105617 -0.221754 255 255 255
-0.149227 0.240336 0.189443 255 255 255
0.191941 -0.043020 0.289754 255 255 255
0.005273 0.165501 -0.247550 255 255 255
-0.190503 0.223494 0.120972 255 255 255
-0.155592 -0.171564 0.197213 255 255 255
0.060814 -0.206298 0.163645 255 255 255
-0.129161 0.254204 0.201958 255 255 255
0.019483 -0.225556 -0.244630 255 255 255
0.157546 0.154370 0.191395 255 255 255
0.179267 0.019556 -0.165267 255 255 255
0.064244 0.106006 0.236934 255 255 255
-0.228859 0.046431 -0.099699 255 255 255
-0.006546 -0.034029 0.246009 255 255 255
-0.094457 0.163518 0.229124 255 255 255
0.170068 0.246315 -0.054881 255 255 255
0.174711 -0.198112 -0.176986 255 255 255
0.140450 0.250393 -0.107822 255 255 255
0.064786 -0.100502 -0.241191 255 255 255
-0.136754 -0.249272 -0.207918 255 255 255
0.053980 -0.244044 -0.248301 255 255 255
-0.248340 0.121794 0.004609 255 255 255
-0.239135 -0.184471 -0.036126 255 255 255
