ply
    		format ascii 1.0
    		element vertex 2048
    		property float x
    		property float y
    		property float z
    		property uchar red
    		property uchar green
    		property uchar blue
    		end_header
-0.038880 0.137367 -0.020165 255 255 255
-0.198495 0.020845 0.270689 255 255 255
0.089711 -0.015396 -0.019202 255 255 255
-0.164296 0.019880 -0.031883 255 255 255
-0.095015 -0.098232 -0.080927 255 255 255
-0.167128 -0.153671 0.284134 255 255 255
0.027089 0.072888 -0.013493 255 255 255
0.133727 -0.078910 -0.029436 255 255 255
-0.067557 0.043067 -0.290398 255 255 255
0.124719 -0.141448 0.006398 255 255 255
0.187642 0.029033 -0.007113 255 255 255
0.007658 0.123321 -0.040652 255 255 255
-0.212726 0.144881 0.165402 255 255 255
0.065430 -0.146550 -0.012488 255 255 255
0.158256 0.080103 -0.008103 255 255 255
-0.157620 0.096023 -0.011288 255 255 255
0.088099 0.059923 -0.012377 255 255 255
0.208451 -0.095892 0.012274 255 255 255
-0.057563 0.139828 -0.114176 255 255 255
-0.044468 -0.044436 -0.031798 255 255 255
-0.100262 -0.060791 -0.014051 255 255 255
-0.189810 -0.013296 -0.009891 255 255 255
0.006929 0.212887 0.012561 255 255 255
-0.224632 0.052302 0.291373 255 255 255
0.004083 -0.154038 0.012237 255 255 255
0.219250 0.046839 -0.036855 255 255 255
-0.083213 0.143118 0.015378 255 255 255
-0.197436 -0.178540 0.376163 255 255 255
-0.192987 0.127720 0.275181 255 255 255
0.253853 0.140413 -0.006989 255 255 255
-0.090495 -0.109552 0.009168 255 255 255
-0.015966 0.032657 -0.009062 255 255 255
0.207297 0.079480 -0.007883 255 255 255
0.139401 -0.114341 0.010523 255 255 255
0.223838 -0.049907 -0.019307 255 255 255
-0.034948 -0.053197 -0.001808 255 255 255
0.135034 -0.014203 -0.009852 255 255 255
0.010102 -0.149958 -0.015039 255 255 255
-0.148158 0.136363 0.240046 255 255 255
-0.188195 -0.028486 0.027809 255 255 255
-0.077760 0.159816 -0.074907 255 255 255
-0.193595 -0.062076 0.035617 255 255 255
-0.209017 0.047209 -0.035733 255 255 255
0.092964 0.032141 0.023271 255 255 255
-0.164331 -0.053767 -0.051800 255 255 255
-0.122621 0.139810 -0.000320 255 255 255
-0.199618 0.155605 0.153328 255 255 255
-0.109636 -0.114019 -0.007661 255 255 255
-0.211143 -0.077140 0.356936 255 255 255
0.103114 -0.119230 -0.019922 255 255 255
-0.122905 0.080625 -0.016824 255 255 255
-0.190734 -0.060714 0.273547 255 255 255
-0.191260 -0.001919 -0.060779 255 255 255
0.234477 0.054904 -0.011994 255 255 255
-0.028230 -0.009588 -0.271422 255 255 255
-0.218737 -0.010306 0.354732 255 255 255
0.145360 -0.138992 -0.008396 255 255 255
-0.232923 0.131168 0.335456 255 255 255
0.034694 0.141311 -0.003501 255 255 255
-0.069773 -0.094479 -0.018904 255 255 255
-0.188262 0.042867 -0.031353 255 255 255
0.138381 -0.049624 -0.092555 255 255 255
0.217634 -0.148049 -0.007266 255 255 255
-0.238902 0.031305 -0.023020 255 255 255
0.115606 -0.091357 -0.132776 255 255 255
0.105727 -0.096518 -0.093080 255 255 255
0.212644 -0.030261 0.003742 255 255 255
0.163688 -0.059463 -0.267281 255 255 255
-0.089724 0.041554 -0.079114 255 255 255
0.072586 0.099588 -0.016655 255 255 255
-0.130389 0.006272 -0.003986 255 255 255
0.159515 -0.092387 -0.005813 255 255 255
0.254111 0.045996 -0.005529 255 255 255
-0.151179 0.037950 -0.015034 255 255 255
0.039160 0.188258 -0.002270 255 255 255
-0.031502 0.116685 -0.014161 255 255 255
0.125199 -0.129687 0.017226 255 255 255
0.094639 0.156287 -0.144671 255 255 255
-0.080076 -0.006974 -0.018184 255 255 255
0.173449 0.105661 -0.012946 255 255 255
-0.020257 0.133877 -0.044000 255 255 255
0.041645 0.016249 -0.008165 255 255 255
-0.181571 0.016271 -0.028071 255 255 255
0.233402 0.044907 -0.013427 255 255 255
-0.001809 0.194800 -0.062271 255 255 255
-0.153682 -0.053995 0.024979 255 255 255
0.117587 0.055987 -0.257405 255 255 255
-0.006717 -0.108464 -0.008649 255 255 255
-0.090583 -0.050675 -0.034783 255 255 255
-0.054426 0.022500 -0.001808 255 255 255
0.001882 0.113793 -0.057601 255 255 255
0.156255 -0.100621 -0.006430 255 255 255
0.049416 0.078623 -0.009262 255 255 255
0.195124 -0.007174 -0.010287 255 255 255
-0.131547 0.061063 -0.009396 255 255 255
-0.038251 -0.155277 -0.131051 255 255 255
0.254638 0.024292 -0.048433 255 255 255
-0.132491 0.095299 -0.007907 255 255 255
-0.206097 -0.021009 0.253549 255 255 255
-0.022214 0.120823 -0.109431 255 255 255
0.088232 0.038297 -0.290695 255 255 255
-0.124143 0.002820 -0.315384 255 255 255
-0.148030 0.118094 -0.051359 255 255 255
-0.162668 -0.093948 0.038669 255 255 255
0.033690 0.051463 -0.005483 255 255 255
0.101029 0.052842 0.008992 255 255 255
-0.029450 -0.056399 -0.286351 255 255 255
-0.192774 -0.001220 0.002691 255 255 255
0.216008 -0.037102 -0.053576 255 255 255
-0.053845 -0.047725 -0.163643 255 255 255
-0.210901 -0.006864 0.315683 255 255 255
-0.201137 -0.074078 0.306509 255 255 255
-0.089656 -0.074858 -0.008658 255 255 255
-0.138251 -0.096825 -0.014664 255 255 255
-0.201045 0.040525 0.128439 255 255 255
-0.087076 0.114728 -0.013945 255 255 255
0.027822 -0.131498 -0.033123 255 255 255
-0.173716 0.041254 -0.037838 255 255 255
0.209495 -0.002317 -0.015560 255 255 255
0.054303 0.003814 0.015340 255 255 255
0.221184 -0.002916 -0.007119 255 255 255
-0.146200 -0.150890 0.272549 255 255 255
-0.186826 0.020714 0.031740 255 255 255
-0.055672 -0.089976 0.007177 255 255 255
-0.184932 0.166020 0.224262 255 255 255
0.242423 0.064164 -0.049370 255 255 255
0.221954 -0.037120 -0.026429 255 255 255
0.219989 0.063127 -0.026487 255 255 255
0.241200 0.033109 -0.043868 255 255 255
0.043855 0.118902 0.033286 255 255 255
0.096131 0.120826 -0.003155 255 255 255
0.238204 0.062534 -0.027147 255 255 255
0.249753 0.002163 -0.102071 255 255 255
0.089070 -0.037894 0.008823 255 255 255
0.133691 0.128396 0.002354 255 255 255
0.016067 -0.114201 0.001176 255 255 255
0.128903 -0.062872 -0.001908 255 255 255
-0.172124 -0.154322 0.297334 255 255 255
0.091872 0.133934 -0.014395 255 255 255
0.011217 -0.040286 -0.016022 255 255 255
-0.134232 0.069780 -0.056453 255 255 255
-0.106151 -0.035637 -0.101432 255 255 255
0.017707 0.153173 0.000578 255 255 255
-0.179313 -0.025721 -0.018468 255 255 255
0.092154 0.044871 -0.162071 255 255 255
0.076677 -0.002369 -0.005422 255 255 255
0.233572 0.127875 -0.026202 255 255 255
-0.185491 0.059479 0.317955 255 255 255
0.077609 -0.148686 0.001544 255 255 255
-0.169853 -0.083495 -0.116345 255 255 255
-0.212252 -0.068914 0.352313 255 255 255
-0.055179 -0.006611 -0.009039 255 255 255
0.102156 0.091795 -0.017560 255 255 255
-0.192030 0.057240 0.075606 255 255 255
-0.181488 0.139161 0.041832 255 255 255
0.137791 0.148277 -0.002109 255 255 255
0.239426 -0.093698 0.006524 255 255 255
0.060951 0.135991 -0.081295 255 255 255
-0.152492 -0.113804 -0.050929 255 255 255
-0.146808 -0.040653 0.008366 255 255 255
0.151136 0.009856 -0.021355 255 255 255
0.155864 -0.000430 -0.003098 255 255 255
0.183998 -0.076356 -0.034598 255 255 255
0.027366 0.151750 0.016578 255 255 255
0.163520 -0.202866 -0.019188 255 255 255
-0.211385 0.041996 -0.039959 255 255 255
-0.090142 -0.030097 -0.001504 255 255 255
0.093050 0.126077 -0.005440 255 255 255
0.203858 0.012761 -0.017495 255 255 255
-0.088549 -0.123209 -0.140158 255 255 255
0.136236 0.065677 -0.014637 255 255 255
-0.115971 -0.038155 -0.018623 255 255 255
-0.168923 0.085215 0.008743 255 255 255
-0.206263 0.119354 0.267385 255 255 255
-0.155935 -0.101597 -0.035701 255 255 255
-0.167140 -0.065915 0.114797 255 255 255
0.023421 0.083212 -0.018208 255 255 255
-0.213589 -0.094107 0.302891 255 255 255
0.156382 0.066635 0.010071 255 255 255
0.104037 -0.084966 -0.044241 255 255 255
-0.194577 0.105026 0.243228 255 255 255
0.096940 0.046340 -0.000754 255 255 255
0.114102 0.143788 -0.006528 255 255 255
0.195987 -0.002510 -0.002077 255 255 255
-0.155091 0.114252 -0.004087 255 255 255
-0.158204 0.150865 0.316317 255 255 255
0.065250 -0.093733 -0.248092 255 255 255
-0.096017 0.137400 -0.006948 255 255 255
0.068823 -0.137826 -0.019275 255 255 255
0.051043 0.213864 0.014366 255 255 255
0.072383 0.144807 0.011072 255 255 255
-0.021869 0.122929 -0.018088 255 255 255
-0.038729 0.061364 -0.257500 255 255 255
0.130106 -0.093241 -0.217883 255 255 255
-0.008581 0.128319 -0.004799 255 255 255
-0.155565 0.123330 0.120373 255 255 255
-0.123689 -0.015722 -0.111357 255 255 255
-0.210064 0.034900 0.232006 255 255 255
-0.072979 0.126727 0.035862 255 255 255
-0.158568 -0.117579 0.234418 255 255 255
-0.201426 0.056634 0.168173 255 255 255
-0.206229 -0.075392 0.247217 255 255 255
-0.206138 0.014086 0.225725 255 255 255
0.208726 -0.043347 0.003173 255 255 255
-0.207096 0.089086 -0.082049 255 255 255
-0.198422 0.092061 0.299725 255 255 255
-0.188531 -0.058822 -0.056255 255 255 255
0.192020 0.112295 -0.024389 255 255 255
0.150208 0.152185 -0.006134 255 255 255
0.146896 -0.155357 -0.007162 255 255 255
0.084937 0.031232 0.000635 255 255 255
0.181522 0.141650 -0.003659 255 255 255
0.036919 -0.006435 -0.007826 255 255 255
-0.209529 0.161685 -0.014938 255 255 255
0.071122 0.103609 -0.040220 255 255 255
-0.178248 0.058550 -0.049975 255 255 255
-0.220911 0.054230 0.331110 255 255 255
0.037566 0.174699 -0.031584 255 255 255
-0.193609 0.034511 -0.000093 255 255 255
0.076454 0.039441 -0.169520 255 255 255
-0.122755 0.138405 -0.032097 255 255 255
-0.045467 0.072537 0.009816 255 255 255
-0.153337 -0.076878 -0.017897 255 255 255
-0.152845 -0.024328 -0.112234 255 255 255
-0.082293 -0.067762 -0.001205 255 255 255
-0.090310 -0.030020 -0.009197 255 255 255
-0.196486 -0.057212 -0.120518 255 255 255
-0.021307 -0.147087 -0.065720 255 255 255
-0.004476 0.069236 0.000518 255 255 255
-0.190567 -0.091319 -0.037343 255 255 255
-0.183962 -0.103758 0.268927 255 255 255
0.072827 -0.103069 -0.191695 255 255 255
-0.020632 -0.122659 -0.090221 255 255 255
-0.160639 -0.001612 -0.009731 255 255 255
0.140839 0.049096 -0.011616 255 255 255
-0.185295 -0.067006 -0.050269 255 255 255
-0.175662 -0.181732 0.269666 255 255 255
-0.052351 -0.079004 -0.144911 255 255 255
-0.118813 0.113896 0.070014 255 255 255
0.023195 -0.086601 0.001159 255 255 255
-0.207519 0.010856 0.309940 255 255 255
-0.180803 -0.126888 0.268885 255 255 255
0.029415 0.144185 0.010051 255 255 255
-0.033412 -0.020754 -0.006347 255 255 255
0.155568 0.052437 -0.110390 255 255 255
-0.136847 0.116059 -0.122677 255 255 255
0.079497 0.099886 -0.007772 255 255 255
-0.230123 -0.024137 0.252068 255 255 255
-0.134423 0.109505 0.051624 255 255 255
-0.226865 0.025298 0.313663 255 255 255
-0.183166 -0.007409 0.051724 255 255 255
-0.193242 -0.021519 -0.003520 255 255 255
-0.156598 0.212141 0.276917 255 255 255
-0.079301 -0.040419 -0.004113 255 255 255
0.199557 -0.076042 -0.018634 255 255 255
0.014441 0.083863 -0.042515 255 255 255
0.202390 -0.086424 -0.004075 255 255 255
0.195952 -0.098368 -0.024518 255 255 255
0.015552 -0.074016 -0.136152 255 255 255
0.051023 -0.093081 0.001544 255 255 255
0.042172 0.085049 -0.008683 255 255 255
-0.206290 0.094768 0.280403 255 255 255
-0.248531 0.059758 0.311790 255 255 255
-0.158267 -0.024316 0.008978 255 255 255
0.233000 0.047809 -0.064894 255 255 255
0.040388 -0.029084 0.000462 255 255 255
-0.142640 0.156622 0.283304 255 255 255
0.133334 -0.166854 -0.113307 255 255 255
-0.047791 -0.139355 -0.012785 255 255 255
0.117723 -0.116140 -0.238632 255 255 255
-0.213946 -0.045615 0.287130 255 255 255
0.182634 -0.125129 -0.247162 255 255 255
0.002242 -0.058351 0.036207 255 255 255
-0.023315 0.073047 -0.013054 255 255 255
-0.091516 0.144600 -0.020680 255 255 255
-0.091674 0.064970 -0.024667 255 255 255
-0.174881 0.076065 -0.009047 255 255 255
-0.008384 0.097434 -0.011334 255 255 255
-0.033070 -0.040218 0.009863 255 255 255
0.067941 -0.092656 -0.008908 255 255 255
-0.176712 -0.089129 0.330577 255 255 255
-0.198250 0.024357 0.201950 255 255 255
-0.170444 0.187893 0.237294 255 255 255
0.180129 0.104438 -0.008976 255 255 255
0.029269 0.075191 0.020740 255 255 255
0.040326 0.005652 -0.005082 255 255 255
0.008567 -0.011915 -0.295085 255 255 255
-0.192537 0.068233 0.181478 255 255 255
-0.169010 0.224581 0.234099 255 255 255
-0.218797 -0.014972 0.295906 255 255 255
-0.103737 0.008370 0.004760 255 255 255
0.157562 0.086116 -0.321363 255 255 255
0.002719 0.101430 -0.286949 255 255 255
-0.166468 0.097926 -0.109355 255 255 255
-0.159935 -0.063728 -0.036004 255 255 255
0.041884 -0.049901 -0.199587 255 255 255
0.048748 0.146194 -0.078443 255 255 255
-0.178866 0.148674 0.257511 255 255 255
0.118120 0.008453 -0.003182 255 255 255
0.147914 -0.111688 -0.037579 255 255 255
-0.159849 0.058179 -0.002125 255 255 255
-0.020039 -0.092567 -0.018924 255 255 255
-0.151707 0.155718 0.315051 255 255 255
-0.205812 0.148547 0.313253 255 255 255
-0.212460 -0.012824 -0.020688 255 255 255
0.243386 0.001865 0.018530 255 255 255
0.068335 0.211537 -0.015709 255 255 255
0.131715 0.076693 -0.161081 255 255 255
-0.203730 -0.042571 0.186452 255 255 255
0.200325 0.010351 -0.065386 255 255 255
-0.173044 -0.080265 -0.024546 255 255 255
-0.210607 0.098348 0.325917 255 255 255
-0.150473 -0.006194 -0.021370 255 255 255
0.156029 0.024474 -0.007236 255 255 255
-0.110003 -0.063564 -0.019780 255 255 255
0.204638 0.036464 -0.279985 255 255 255
-0.036388 0.143561 -0.030404 255 255 255
0.149144 0.032396 -0.005420 255 255 255
0.023088 -0.039279 -0.218755 255 255 255
-0.178639 0.150847 -0.070203 255 255 255
-0.073324 0.102604 -0.004160 255 255 255
0.103002 -0.041415 -0.197969 255 255 255
0.164882 0.135931 -0.015890 255 255 255
-0.073354 -0.023435 -0.015457 255 255 255
-0.182434 -0.087309 0.145603 255 255 255
-0.179882 0.042012 -0.018892 255 255 255
0.005563 -0.025750 -0.020747 255 255 255
-0.138056 -0.085564 0.106397 255 255 255
-0.041677 -0.082585 -0.285832 255 255 255
-0.184150 0.060313 0.042714 255 255 255
-0.129415 0.217390 0.283789 255 255 255
-0.102939 -0.026637 0.043483 255 255 255
0.070633 -0.174421 -0.067498 255 255 255
0.219178 0.018264 -0.065299 255 255 255
0.211563 0.047259 -0.039696 255 255 255
-0.171445 -0.010559 -0.001639 255 255 255
-0.024545 0.083122 -0.047886 255 255 255
0.125666 0.039685 -0.114048 255 255 255
-0.003382 0.120161 0.001190 255 255 255
-0.076914 0.166946 0.001105 255 255 255
0.067485 0.080560 -0.038135 255 255 255
-0.164217 0.015181 -0.007470 255 255 255
-0.180137 -0.060402 -0.016593 255 255 255
-0.152061 0.073165 -0.013766 255 255 255
-0.153055 -0.050226 0.004751 255 255 255
-0.171036 0.133489 0.271742 255 255 255
-0.080391 -0.101317 -0.010428 255 255 255
-0.033410 -0.050955 -0.013024 255 255 255
0.259833 0.078644 -0.025341 255 255 255
-0.213978 0.069247 0.328042 255 255 255
0.143118 0.140990 -0.031082 255 255 255
-0.156785 -0.026033 -0.066377 255 255 255
0.151157 0.027085 -0.007344 255 255 255
0.222396 -0.011266 0.002326 255 255 255
-0.182196 0.169867 0.314817 255 255 255
0.274198 -0.020830 -0.011568 255 255 255
0.049221 0.139397 -0.024706 255 255 255
0.000247 0.090837 -0.264431 255 255 255
-0.181775 -0.091742 -0.018455 255 255 255
0.005454 -0.066004 -0.029251 255 255 255
-0.074805 0.102514 0.024101 255 255 255
-0.008320 -0.098782 -0.025100 255 255 255
0.125361 0.123201 -0.001718 255 255 255
-0.028498 -0.127494 -0.012959 255 255 255
0.093570 0.063619 0.025504 255 255 255
-0.048075 0.092304 -0.200092 255 255 255
-0.091205 0.030144 -0.038430 255 255 255
-0.145176 0.016876 -0.032317 255 255 255
-0.156081 -0.054046 0.000754 255 255 255
-0.230025 0.001458 0.321550 255 255 255
-0.186311 0.023812 -0.016521 255 255 255
-0.041634 -0.052866 -0.263754 255 255 255
-0.042514 0.161130 -0.005552 255 255 255
-0.091785 -0.090804 -0.013349 255 255 255
-0.205926 -0.069863 0.318723 255 255 255
-0.185712 0.140386 0.029335 255 255 255
0.105255 -0.151991 0.026550 255 255 255
0.073607 -0.148505 -0.026658 255 255 255
-0.031594 -0.045453 -0.312010 255 255 255
0.182055 -0.072229 -0.004039 255 255 255
-0.201120 0.021753 -0.000006 255 255 255
0.013661 -0.057590 0.041188 255 255 255
-0.054648 0.040257 0.002394 255 255 255
0.168062 -0.121022 0.004771 255 255 255
-0.012582 -0.070074 0.026019 255 255 255
0.254580 0.027441 -0.048773 255 255 255
0.009145 0.120306 -0.006962 255 255 255
0.143892 -0.030240 -0.114485 255 255 255
-0.122686 -0.074283 -0.033060 255 255 255
-0.011815 -0.167741 -0.015728 255 255 255
-0.012077 0.080813 -0.219425 255 255 255
-0.138219 0.136282 -0.020596 255 255 255
-0.220922 0.042705 0.039763 255 255 255
-0.073172 0.131565 -0.020214 255 255 255
0.064365 0.190617 -0.053045 255 255 255
-0.186486 -0.000255 -0.023064 255 255 255
-0.056760 -0.044286 0.006631 255 255 255
0.118679 -0.078824 -0.014462 255 255 255
0.168917 0.001613 -0.027677 255 255 255
-0.061737 -0.029961 -0.187945 255 255 255
0.071090 0.131426 -0.011793 255 255 255
0.119412 0.163030 -0.026754 255 255 255
0.045807 0.176716 -0.009929 255 255 255
0.211055 -0.138745 -0.032646 255 255 255
-0.149861 0.011877 -0.071729 255 255 255
-0.098597 0.027300 -0.014993 255 255 255
-0.154208 -0.131906 -0.132809 255 255 255
-0.085760 -0.102361 -0.040609 255 255 255
-0.055390 0.058505 0.012905 255 255 255
0.115142 -0.125832 -0.008635 255 255 255
0.044475 -0.122795 0.005591 255 255 255
0.047455 0.081291 0.004686 255 255 255
0.104973 0.079873 -0.017641 255 255 255
-0.091036 0.034177 -0.018824 255 255 255
0.153219 0.059635 -0.015915 255 255 255
0.155346 0.019799 -0.004399 255 255 255
0.030021 -0.011900 0.010017 255 255 255
-0.179352 0.069024 0.035642 255 255 255
0.103346 -0.016411 -0.004393 255 255 255
0.112810 0.137317 -0.006977 255 255 255
-0.175242 -0.102118 0.323876 255 255 255
-0.091519 0.062701 -0.021281 255 255 255
0.043932 -0.109575 -0.000944 255 255 255
0.163629 0.048269 -0.002385 255 255 255
-0.014822 -0.057674 -0.013974 255 255 255
0.147403 -0.156312 -0.016289 255 255 255
0.106983 -0.092285 0.000497 255 255 255
-0.141487 0.068304 -0.002760 255 255 255
0.077881 -0.059208 -0.105718 255 255 255
-0.187320 0.144260 0.261597 255 255 255
-0.117670 -0.107060 -0.002364 255 255 255
-0.046990 -0.136843 0.019936 255 255 255
0.268892 -0.053604 -0.036427 255 255 255
0.132844 -0.050827 -0.051104 255 255 255
-0.215526 0.073868 0.341973 255 255 255
-0.102999 -0.089850 -0.036970 255 255 255
-0.194125 0.079503 0.270574 255 255 255
-0.077429 0.119333 -0.027788 255 255 255
-0.201192 -0.015797 0.248720 255 255 255
0.086371 0.015027 -0.000437 255 255 255
0.020574 0.095862 -0.065599 255 255 255
0.103614 0.144744 -0.000375 255 255 255
0.030715 -0.144466 -0.092502 255 255 255
0.085573 0.069521 -0.174404 255 255 255
-0.157064 -0.020066 -0.019959 255 255 255
-0.202937 -0.098744 0.311975 255 255 255
-0.006906 -0.167916 -0.067663 255 255 255
0.072919 -0.082126 -0.010255 255 255 255
-0.093159 -0.048490 -0.018371 255 255 255
0.108381 -0.133555 -0.001897 255 255 255
0.099491 0.091422 -0.251892 255 255 255
-0.163794 0.147501 0.279922 255 255 255
-0.136100 0.105748 0.043471 255 255 255
-0.161225 -0.020967 -0.044123 255 255 255
0.059633 0.020801 -0.006448 255 255 255
0.240797 0.020036 -0.042155 255 255 255
0.236207 -0.032753 -0.030569 255 255 255
-0.121469 0.105175 -0.009857 255 255 255
-0.210750 0.032984 0.272310 255 255 255
-0.032665 0.106993 0.001702 255 255 255
-0.191101 -0.042886 0.328693 255 255 255
0.133264 -0.125738 0.005941 255 255 255
0.114163 -0.113670 -0.028901 255 255 255
-0.024108 0.094231 -0.012843 255 255 255
-0.237706 0.022234 0.342770 255 255 255
0.144614 0.094824 -0.007825 255 255 255
-0.052518 0.084894 -0.022474 255 255 255
0.130219 -0.074842 -0.012113 255 255 255
-0.201381 -0.050742 0.181982 255 255 255
-0.016740 0.142276 -0.123392 255 255 255
-0.195739 -0.067838 0.307890 255 255 255
0.151383 -0.123485 -0.019272 255 255 255
-0.204734 -0.077514 0.148705 255 255 255
-0.158636 0.103288 -0.064389 255 255 255
-0.180882 -0.105555 0.230192 255 255 255
0.213634 -0.040377 -0.024595 255 255 255
0.027344 -0.029589 -0.019017 255 255 255
-0.207152 0.153388 0.321767 255 255 255
-0.073334 0.069004 -0.045495 255 255 255
0.082435 0.057201 -0.017128 255 255 255
0.182836 0.034793 -0.064840 255 255 255
-0.227072 -0.117826 0.312529 255 255 255
-0.221168 -0.072465 -0.015551 255 255 255
-0.203558 0.019331 0.221182 255 255 255
-0.187254 0.139851 0.298823 255 255 255
0.075154 0.003583 -0.004536 255 255 255
0.099688 0.173701 0.001400 255 255 255
-0.176526 -0.017469 0.102444 255 255 255
0.027757 0.141042 -0.119936 255 255 255
-0.044218 -0.083989 0.011779 255 255 255
-0.181112 -0.013100 -0.040079 255 255 255
0.006050 -0.139162 -0.031422 255 255 255
-0.025648 0.082159 -0.087951 255 255 255
0.051791 -0.054624 0.024247 255 255 255
0.244014 -0.010581 -0.028422 255 255 255
-0.191778 0.115639 0.205672 255 255 255
-0.016375 -0.000869 0.005784 255 255 255
0.101024 -0.159744 -0.015963 255 255 255
0.019570 0.146634 -0.130248 255 255 255
0.099953 0.022151 0.015962 255 255 255
0.089019 0.080903 -0.001687 255 255 255
0.235721 0.088304 -0.009237 255 255 255
0.214546 0.061821 -0.004562 255 255 255
0.034362 -0.089487 -0.099874 255 255 255
0.018843 0.017391 -0.016584 255 255 255
-0.170158 0.013720 0.023522 255 255 255
-0.107587 -0.095956 -0.012594 255 255 255
-0.054896 -0.023237 -0.024449 255 255 255
-0.047982 0.178201 -0.117347 255 255 255
0.153020 0.161097 -0.010910 255 255 255
0.216157 -0.111461 -0.026348 255 255 255
0.239461 -0.052303 -0.036328 255 255 255
-0.011541 -0.054494 -0.010078 255 255 255
0.210902 0.007068 -0.022886 255 255 255
-0.122222 0.134433 -0.088386 255 255 255
-0.009097 0.004119 0.000544 255 255 255
0.066081 0.052327 -0.022150 255 255 255
0.006816 0.081207 0.010211 255 255 255
-0.139950 -0.097739 -0.002151 255 255 255
-0.095922 0.089574 -0.034449 255 255 255
-0.195996 0.062920 -0.018083 255 255 255
-0.246958 0.089385 0.288283 255 255 255
-0.036343 0.028342 0.005078 255 255 255
-0.064248 0.030266 0.020305 255 255 255
0.149732 -0.021941 -0.003110 255 255 255
0.055963 -0.085573 -0.093095 255 255 255
0.045632 0.053239 -0.015000 255 255 255
0.104852 -0.130948 0.001726 255 255 255
0.044289 -0.181369 -0.015728 255 255 255
-0.185748 -0.059269 0.204250 255 255 255
0.061528 0.156003 -0.034325 255 255 255
0.101660 0.123597 -0.004232 255 255 255
-0.227746 0.074022 0.229080 255 255 255
-0.163790 0.007009 -0.010101 255 255 255
0.246257 -0.007758 -0.020630 255 255 255
-0.240121 -0.073983 0.309689 255 255 255
-0.166797 0.155378 0.288293 255 255 255
-0.168892 0.065090 -0.074170 255 255 255
-0.022521 0.093233 0.009147 255 255 255
0.254663 0.129364 -0.017546 255 255 255
-0.192843 0.101299 0.326689 255 255 255
-0.135116 0.102883 -0.029720 255 255 255
-0.144530 -0.044954 -0.032173 255 255 255
0.219489 0.099548 -0.000555 255 255 255
0.114396 -0.122602 -0.014996 255 255 255
-0.193689 0.059869 0.325214 255 255 255
0.063790 -0.010728 -0.015364 255 255 255
0.191410 0.092117 0.007627 255 255 255
-0.009476 -0.102762 -0.010826 255 255 255
0.003829 0.120017 0.002955 255 255 255
-0.093291 -0.102593 -0.006500 255 255 255
-0.197505 0.006872 0.306707 255 255 255
-0.183541 0.124959 0.287620 255 255 255
0.028122 0.037288 -0.020346 255 255 255
-0.180263 -0.015272 -0.018802 255 255 255
-0.162510 -0.006521 -0.114076 255 255 255
-0.040687 -0.075526 0.015216 255 255 255
-0.247889 -0.070040 0.316858 255 255 255
-0.194949 -0.114690 0.023726 255 255 255
-0.111023 0.087503 0.000532 255 255 255
-0.241514 -0.098380 -0.069863 255 255 255
-0.110893 0.139766 -0.079268 255 255 255
0.177072 -0.152339 -0.012073 255 255 255
-0.147347 -0.123286 0.175494 255 255 255
-0.054398 0.168176 -0.081364 255 255 255
-0.116394 -0.063648 -0.003850 255 255 255
-0.050862 0.168204 -0.013055 255 255 255
-0.169321 0.161673 0.253784 255 255 255
-0.012412 -0.051464 -0.009101 255 255 255
0.101406 -0.018061 -0.011569 255 255 255
0.118380 0.105881 -0.005876 255 255 255
-0.104119 0.067892 0.017248 255 255 255
-0.009458 0.157505 -0.009510 255 255 255
-0.186088 0.056851 0.032184 255 255 255
-0.183872 -0.105164 0.308099 255 255 255
0.164557 0.138007 -0.034872 255 255 255
0.053032 -0.046623 -0.002311 255 255 255
0.282806 0.029419 -0.040724 255 255 255
0.126686 -0.132694 -0.094662 255 255 255
-0.123352 0.120193 0.012661 255 255 255
-0.174604 -0.135392 0.230104 255 255 255
0.097963 -0.063874 -0.029866 255 255 255
-0.128153 0.202118 0.258820 255 255 255
0.178796 0.009300 -0.062220 255 255 255
-0.210085 -0.031839 0.172159 255 255 255
-0.174449 0.152459 0.280835 255 255 255
-0.035500 -0.110549 -0.082406 255 255 255
-0.087060 0.127986 0.024865 255 255 255
-0.233916 -0.059100 0.296898 255 255 255
-0.259929 0.062072 0.331255 255 255 255
-0.164794 0.014322 -0.013536 255 255 255
-0.111857 -0.032341 -0.016151 255 255 255
-0.113157 0.114828 -0.006814 255 255 255
0.057782 -0.107024 -0.014785 255 255 255
-0.081866 -0.082010 -0.022070 255 255 255
-0.174360 -0.118777 0.210816 255 255 255
-0.149319 -0.020272 0.004625 255 255 255
-0.060407 0.029459 -0.012717 255 255 255
0.097365 0.101900 0.000076 255 255 255
-0.067505 -0.055282 -0.019817 255 255 255
0.075422 0.156924 -0.015894 255 255 255
0.258007 0.002697 -0.033091 255 255 255
0.182766 -0.092954 -0.005437 255 255 255
0.092988 -0.175203 -0.102859 255 255 255
-0.188077 0.068888 0.312262 255 255 255
0.046423 -0.125492 -0.021354 255 255 255
-0.152921 0.060779 0.227411 255 255 255
0.001417 -0.160130 -0.101184 255 255 255
0.210520 -0.043025 -0.016958 255 255 255
0.020149 0.082441 0.004090 255 255 255
0.067648 0.077258 0.000313 255 255 255
0.252985 -0.062544 -0.035814 255 255 255
-0.195825 -0.054486 0.020895 255 255 255
-0.135895 0.103122 -0.053749 255 255 255
0.153991 0.062376 -0.044123 255 255 255
-0.190655 0.001984 -0.002425 255 255 255
0.146005 -0.090886 -0.018323 255 255 255
-0.226670 0.027088 0.007574 255 255 255
-0.220997 0.012943 0.322433 255 255 255
-0.077872 -0.079012 -0.027731 255 255 255
-0.229912 0.035900 0.370757 255 255 255
-0.151816 0.145414 -0.008474 255 255 255
-0.198852 0.001441 0.281739 255 255 255
0.067787 0.050831 -0.005152 255 255 255
-0.058210 -0.080775 -0.135320 255 255 255
-0.094361 0.061237 -0.062067 255 255 255
0.160205 -0.009142 -0.016061 255 255 255
-0.119690 0.125442 -0.062801 255 255 255
-0.178568 0.130240 0.233322 255 255 255
-0.189297 0.014067 0.033856 255 255 255
-0.102779 -0.081777 -0.065161 255 255 255
0.224810 -0.082089 -0.034660 255 255 255
0.091588 0.117854 -0.000928 255 255 255
-0.004356 0.088071 -0.022696 255 255 255
0.177549 -0.138255 -0.305680 255 255 255
-0.140060 -0.012986 -0.047730 255 255 255
-0.075098 -0.008512 -0.014964 255 255 255
0.167700 -0.081254 -0.056513 255 255 255
-0.067818 0.099634 -0.123331 255 255 255
0.104922 0.006759 0.003877 255 255 255
0.177981 -0.127999 -0.152251 255 255 255
-0.126195 -0.038483 -0.039622 255 255 255
-0.184245 0.027826 -0.035401 255 255 255
-0.223598 0.037396 -0.014008 255 255 255
0.157129 0.110434 0.029006 255 255 255
0.244303 -0.022673 -0.059510 255 255 255
-0.166597 -0.080721 0.153249 255 255 255
-0.135255 0.131672 0.067085 255 255 255
0.199976 0.064209 0.024657 255 255 255
-0.055869 -0.049022 -0.011446 255 255 255
0.163859 0.176739 -0.004778 255 255 255
-0.108392 0.085841 0.015315 255 255 255
0.078794 0.141206 -0.012351 255 255 255
-0.158917 0.151229 0.254677 255 255 255
0.064229 -0.121422 -0.001266 255 255 255
-0.151167 -0.150246 0.219641 255 255 255
-0.004728 -0.051153 -0.004862 255 255 255
0.070514 0.072278 -0.189250 255 255 255
0.109861 -0.112090 0.002763 255 255 255
-0.184300 0.166964 0.258978 255 255 255
0.217126 0.065073 -0.028603 255 255 255
0.097868 -0.098922 -0.033007 255 255 255
0.032430 0.147860 0.023852 255 255 255
0.000327 -0.071699 -0.000890 255 255 255
-0.207633 -0.075526 -0.014585 255 255 255
0.099275 -0.064777 -0.232654 255 255 255
0.062349 0.153040 0.004348 255 255 255
-0.227588 -0.102542 0.299193 255 255 255
-0.217080 0.100003 0.252421 255 255 255
-0.042603 -0.040946 0.010726 255 255 255
-0.046171 -0.107939 -0.005183 255 255 255
-0.017602 0.037571 -0.009792 255 255 255
0.126183 0.040138 -0.000434 255 255 255
-0.216742 -0.056589 0.301537 255 255 255
-0.145508 0.048462 0.002604 255 255 255
-0.133239 -0.066759 -0.004697 255 255 255
-0.162954 -0.092343 -0.010740 255 255 255
0.064576 -0.135619 -0.278612 255 255 255
-0.000531 0.086464 -0.169331 255 255 255
0.081734 0.141199 -0.013209 255 255 255
-0.098848 0.064808 0.004524 255 255 255
-0.214662 -0.073105 0.323605 255 255 255
0.087611 -0.054344 -0.008679 255 255 255
0.174327 -0.122732 -0.011331 255 255 255
-0.167298 -0.005794 -0.140132 255 255 255
-0.207212 -0.017414 -0.009485 255 255 255
-0.163189 -0.071532 -0.017255 255 255 255
-0.211418 -0.003994 -0.049283 255 255 255
-0.001502 0.092562 0.003919 255 255 255
0.198401 0.121093 -0.006955 255 255 255
-0.222514 0.068641 0.313620 255 255 255
-0.181908 0.119408 -0.049801 255 255 255
-0.190707 0.094205 0.279887 255 255 255
0.110945 0.076293 0.003637 255 255 255
-0.218164 0.065075 0.346177 255 255 255
0.204202 0.030220 -0.024591 255 255 255
-0.204427 -0.061102 0.274736 255 255 255
0.103077 0.117176 0.013317 255 255 255
-0.132922 0.082489 0.002036 255 255 255
-0.196373 0.039776 0.260702 255 255 255
0.155737 0.115786 -0.027017 255 255 255
0.206853 -0.073610 -0.009792 255 255 255
-0.183279 0.091249 0.229590 255 255 255
0.173619 0.032962 0.018172 255 255 255
0.131939 -0.049617 -0.000911 255 255 255
0.134154 0.012375 -0.264996 255 255 255
0.230536 0.008469 -0.062693 255 255 255
-0.196110 -0.083748 0.281580 255 255 255
0.004557 0.090367 -0.015315 255 255 255
0.143504 -0.055882 -0.197517 255 255 255
0.198222 0.115973 -0.017805 255 255 255
-0.007135 -0.153364 0.023692 255 255 255
0.102390 0.134534 -0.006526 255 255 255
-0.154035 0.004517 -0.011543 255 255 255
-0.020751 0.053430 -0.268672 255 255 255
-0.178593 0.160023 0.300024 255 255 255
-0.189822 -0.126609 -0.125768 255 255 255
0.179115 0.057613 -0.007806 255 255 255
-0.207484 -0.045670 -0.047463 255 255 255
-0.186695 -0.064713 0.002227 255 255 255
0.086231 0.073996 -0.031894 255 255 255
0.052027 -0.078662 -0.001626 255 255 255
0.089657 -0.153935 -0.128435 255 255 255
0.079578 -0.081291 -0.181653 255 255 255
0.031694 -0.125293 0.000504 255 255 255
0.224513 -0.154462 -0.008800 255 255 255
0.242274 0.002919 -0.043584 255 255 255
-0.091054 0.152493 -0.020253 255 255 255
-0.197737 0.115124 0.258687 255 255 255
-0.221105 0.002641 0.319790 255 255 255
-0.009102 0.142464 0.032194 255 255 255
-0.062401 0.165314 -0.106552 255 255 255
-0.075842 0.082866 -0.102437 255 255 255
-0.038415 0.172443 -0.081437 255 255 255
-0.189380 -0.077251 0.139047 255 255 255
-0.206388 0.011046 0.158390 255 255 255
0.007195 -0.169781 -0.014210 255 255 255
0.264813 -0.026607 -0.017479 255 255 255
-0.060269 0.124163 0.017415 255 255 255
0.124371 -0.123229 0.003882 255 255 255
-0.175807 0.093475 0.027310 255 255 255
-0.136099 -0.036193 -0.014119 255 255 255
-0.045969 0.005388 -0.003262 255 255 255
0.095914 -0.134118 -0.002496 255 255 255
-0.070302 0.126039 0.004598 255 255 255
-0.112209 0.035148 -0.135189 255 255 255
0.087415 0.116886 -0.001281 255 255 255
-0.211222 0.026538 0.174148 255 255 255
-0.044640 -0.067909 -0.029516 255 255 255
0.026809 -0.097972 0.008454 255 255 255
-0.095803 -0.073485 -0.012799 255 255 255
-0.137357 0.175648 0.237833 255 255 255
0.119041 0.123969 -0.102016 255 255 255
-0.049981 0.122623 -0.007927 255 255 255
-0.220496 -0.045557 -0.071983 255 255 255
-0.111303 0.087862 -0.060046 255 255 255
-0.209543 -0.035652 0.187887 255 255 255
-0.211593 -0.077276 0.301028 255 255 255
-0.204954 0.041486 0.189127 255 255 255
-0.171396 0.065530 -0.025452 255 255 255
-0.001883 -0.155325 -0.012719 255 255 255
-0.046954 0.104609 0.009909 255 255 255
-0.169897 0.120653 0.009874 255 255 255
-0.007136 -0.135714 -0.006286 255 255 255
-0.047500 0.152971 -0.034859 255 255 255
-0.200914 -0.032185 -0.036284 255 255 255
0.174036 -0.112591 0.009237 255 255 255
0.012804 -0.057505 -0.012994 255 255 255
-0.196116 0.076144 0.287515 255 255 255
0.102248 0.070981 0.000025 255 255 255
0.026166 -0.153070 -0.031382 255 255 255
0.135548 -0.020575 0.034250 255 255 255
-0.127928 -0.190486 0.202034 255 255 255
-0.193305 0.001349 0.226460 255 255 255
0.173404 0.013302 0.000273 255 255 255
-0.054626 -0.033440 -0.005810 255 255 255
0.112567 -0.123763 -0.000742 255 255 255
-0.189022 0.047406 -0.053789 255 255 255
0.104006 -0.029560 -0.006616 255 255 255
0.057514 0.121730 0.001638 255 255 255
0.146877 -0.001864 -0.023796 255 255 255
0.020300 0.137875 -0.014041 255 255 255
-0.172595 0.184894 0.385567 255 255 255
-0.054003 0.051221 -0.288037 255 255 255
-0.171174 0.050045 0.059973 255 255 255
-0.203671 0.119294 0.353851 255 255 255
-0.005895 0.119287 -0.010506 255 255 255
-0.231808 0.023971 -0.076540 255 255 255
-0.163613 -0.050002 -0.012866 255 255 255
0.143042 0.005825 -0.002788 255 255 255
-0.098421 -0.039797 -0.024026 255 255 255
0.050769 -0.026895 -0.053580 255 255 255
-0.183461 0.038833 -0.075932 255 255 255
-0.214087 0.022288 -0.099635 255 255 255
-0.015141 -0.081747 -0.006455 255 255 255
0.015873 0.089401 -0.011145 255 255 255
0.148657 -0.104220 -0.246557 255 255 255
0.251900 0.045392 -0.041862 255 255 255
-0.035000 -0.128609 -0.019850 255 255 255
-0.030494 0.114475 -0.023170 255 255 255
0.031409 0.020698 -0.029837 255 255 255
-0.228811 -0.037051 0.324638 255 255 255
-0.096482 0.076047 -0.018655 255 255 255
-0.032570 0.138157 0.019816 255 255 255
0.038922 0.117779 -0.017702 255 255 255
0.125288 -0.080940 -0.006961 255 255 255
-0.172908 0.079152 -0.009636 255 255 255
0.025220 0.020458 -0.009555 255 255 255
0.178202 0.022080 0.035802 255 255 255
0.149036 0.090360 -0.276271 255 255 255
0.079074 0.089464 -0.149193 255 255 255
-0.075088 -0.084214 0.008615 255 255 255
0.189645 -0.059364 0.000659 255 255 255
-0.194572 -0.059359 0.208151 255 255 255
0.027909 -0.159772 -0.017462 255 255 255
-0.081839 -0.052768 -0.289796 255 255 255
0.130639 0.126239 -0.033963 255 255 255
0.154212 -0.025123 0.010204 255 255 255
-0.204589 0.112122 0.282031 255 255 255
0.118608 -0.120446 -0.017022 255 255 255
0.132847 -0.139903 -0.016415 255 255 255
0.130507 0.112327 -0.014764 255 255 255
-0.178455 -0.020063 -0.002182 255 255 255
0.007654 -0.154782 -0.098230 255 255 255
0.121507 -0.114044 -0.006864 255 255 255
0.107332 0.145955 -0.044842 255 255 255
-0.198307 0.042043 0.302053 255 255 255
-0.189277 -0.051591 0.194089 255 255 255
-0.135704 0.123850 0.134199 255 255 255
-0.213394 0.049341 0.323516 255 255 255
-0.094224 0.089657 -0.110134 255 255 255
0.010907 -0.063986 -0.012758 255 255 255
0.136606 0.153578 -0.003029 255 255 255
-0.162628 -0.130975 -0.068695 255 255 255
-0.056357 -0.120587 -0.011072 255 255 255
-0.189423 0.134086 0.232322 255 255 255
-0.083570 -0.070849 -0.032656 255 255 255
0.026015 0.144326 -0.010799 255 255 255
-0.083110 0.089026 -0.047760 255 255 255
-0.134115 0.153081 0.234290 255 255 255
0.049300 -0.073777 0.012780 255 255 255
0.162417 -0.188235 -0.160646 255 255 255
-0.220918 -0.055177 0.314098 255 255 255
-0.180970 0.136500 0.371278 255 255 255
-0.100887 -0.101486 -0.038021 255 255 255
-0.119064 -0.067188 -0.036018 255 255 255
0.118856 0.100168 -0.254378 255 255 255
-0.073015 0.079027 0.053911 255 255 255
0.107463 0.154473 -0.015611 255 255 255
0.204139 0.076394 -0.036203 255 255 255
-0.189913 0.030678 -0.029043 255 255 255
-0.206253 0.045577 0.261121 255 255 255
0.099248 0.132201 -0.058064 255 255 255
0.049174 0.069863 -0.013578 255 255 255
0.002667 -0.020534 -0.018830 255 255 255
0.208219 0.009695 -0.009394 255 255 255
-0.033112 -0.102871 0.016341 255 255 255
0.122857 0.119472 -0.018343 255 255 255
-0.130257 -0.040184 -0.015967 255 255 255
-0.214470 0.070991 0.346106 255 255 255
-0.120487 0.100248 -0.019736 255 255 255
-0.166767 -0.061916 0.244887 255 255 255
0.014951 -0.129293 -0.035657 255 255 255
0.002266 -0.045478 -0.010258 255 255 255
0.100945 -0.038759 -0.038731 255 255 255
-0.097430 -0.022419 -0.032566 255 255 255
-0.234377 -0.074553 0.240627 255 255 255
0.096509 0.163565 -0.013323 255 255 255
-0.185724 -0.072980 0.277236 255 255 255
0.124581 0.169970 -0.072438 255 255 255
-0.193033 0.050560 0.258926 255 255 255
-0.120266 0.111685 0.111842 255 255 255
0.052002 0.130019 0.006728 255 255 255
0.173608 0.079883 -0.021738 255 255 255
-0.083113 0.121367 -0.093909 255 255 255
-0.196221 -0.035104 0.097316 255 255 255
0.039411 0.047449 -0.173658 255 255 255
0.168275 0.053221 -0.022327 255 255 255
-0.217935 -0.086700 0.361961 255 255 255
0.130224 -0.053609 -0.030550 255 255 255
-0.197606 0.070546 0.333976 255 255 255
-0.197100 0.121487 0.252020 255 255 255
-0.137399 0.165019 0.255222 255 255 255
-0.062840 0.050905 -0.005376 255 255 255
0.033570 0.053376 -0.026064 255 255 255
-0.166805 -0.145861 0.270349 255 255 255
0.171667 0.127005 0.008787 255 255 255
0.165272 -0.104751 -0.033395 255 255 255
0.185460 -0.086277 -0.007524 255 255 255
-0.004537 0.037761 -0.180757 255 255 255
0.091462 0.049596 -0.015394 255 255 255
0.102406 0.012463 -0.174035 255 255 255
0.157784 -0.035778 -0.004155 255 255 255
0.186454 -0.011312 -0.007044 255 255 255
-0.122064 0.100661 -0.154361 255 255 255
-0.195447 0.074900 0.295946 255 255 255
-0.199453 0.109328 0.321491 255 255 255
-0.187373 -0.047385 0.243572 255 255 255
0.257621 -0.066157 -0.057156 255 255 255
0.109666 0.148351 -0.010124 255 255 255
0.121510 -0.116085 -0.013601 255 255 255
-0.050853 -0.118001 0.000036 255 255 255
-0.163468 -0.075672 0.249505 255 255 255
-0.203281 0.029707 0.309252 255 255 255
0.004746 0.066525 -0.139427 255 255 255
0.165377 -0.170023 -0.013359 255 255 255
-0.066942 -0.103172 -0.015480 255 255 255
0.131527 -0.151829 -0.023912 255 255 255
-0.163259 -0.152617 0.241162 255 255 255
-0.183468 -0.014110 0.286600 255 255 255
-0.208601 0.045034 -0.053617 255 255 255
-0.012306 0.067053 -0.014657 255 255 255
-0.003363 -0.056072 -0.013361 255 255 255
-0.069261 0.003574 -0.277534 255 255 255
-0.043728 -0.040054 0.016764 255 255 255
0.031920 0.188988 0.012051 255 255 255
0.060770 -0.086035 -0.007070 255 255 255
-0.189731 0.091317 0.137336 255 255 255
0.087281 0.147751 -0.025129 255 255 255
0.166631 -0.054390 -0.204096 255 255 255
-0.158169 0.077432 0.005520 255 255 255
-0.084231 -0.056366 -0.007907 255 255 255
-0.102993 0.081037 -0.005926 255 255 255
0.278746 -0.045636 -0.032032 255 255 255
-0.159891 0.170719 0.297687 255 255 255
0.013238 -0.151731 -0.065333 255 255 255
-0.112537 -0.010181 -0.014072 255 255 255
-0.166204 -0.106855 0.121441 255 255 255
-0.223811 0.039252 0.313056 255 255 255
-0.202491 0.059733 0.230195 255 255 255
-0.124641 -0.052666 0.011941 255 255 255
0.196305 0.075030 0.002684 255 255 255
0.179054 -0.151054 -0.046366 255 255 255
-0.149595 -0.049694 -0.066153 255 255 255
0.015600 0.131925 -0.009674 255 255 255
0.259435 -0.129081 -0.047316 255 255 255
-0.010088 -0.149981 -0.029808 255 255 255
0.151542 -0.007040 -0.013666 255 255 255
-0.163590 0.113531 0.268051 255 255 255
-0.119774 -0.111259 0.022545 255 255 255
-0.029826 -0.032668 -0.022112 255 255 255
-0.215331 -0.097825 0.076517 255 255 255
0.132801 0.067037 -0.005896 255 255 255
0.240936 -0.026066 -0.008393 255 255 255
0.171494 0.075656 -0.236271 255 255 255
-0.011757 0.124842 -0.212581 255 255 255
-0.203950 -0.037574 0.360735 255 255 255
0.189009 -0.081780 -0.045608 255 255 255
0.135238 0.084604 -0.289420 255 255 255
-0.189099 0.072213 0.292008 255 255 255
-0.145206 -0.062192 -0.015923 255 255 255
-0.148233 -0.054593 -0.082366 255 255 255
0.149174 -0.121773 -0.009589 255 255 255
0.139006 0.145785 0.015675 255 255 255
-0.011640 0.118631 -0.071167 255 255 255
0.124533 0.126722 -0.017587 255 255 255
-0.055056 -0.060510 -0.250482 255 255 255
0.170900 0.113536 -0.021283 255 255 255
0.112658 -0.061501 -0.009390 255 255 255
0.021680 0.158529 -0.012264 255 255 255
-0.168706 0.136855 0.112140 255 255 255
-0.132570 0.095922 0.012185 255 255 255
0.259114 -0.078463 -0.024624 255 255 255
0.110346 -0.009907 -0.013068 255 255 255
-0.211780 -0.042299 -0.034510 255 255 255
0.077297 -0.167314 0.006685 255 255 255
-0.130209 0.129626 -0.023776 255 255 255
0.184401 -0.056837 -0.024001 255 255 255
0.140122 0.108840 -0.014461 255 255 255
-0.130892 -0.062739 -0.039200 255 255 255
-0.132743 0.115389 -0.030056 255 255 255
-0.173670 -0.150927 0.237321 255 255 255
0.123233 -0.040288 -0.018017 255 255 255
0.002494 -0.147120 -0.006214 255 255 255
0.034485 0.174073 -0.016608 255 255 255
0.210878 -0.035119 0.008893 255 255 255
0.226972 -0.033164 -0.000776 255 255 255
-0.191852 -0.069631 0.012137 255 255 255
0.233764 0.190936 -0.052721 255 255 255
-0.209291 -0.104672 0.335883 255 255 255
-0.158288 0.113635 -0.016880 255 255 255
-0.197650 0.160076 0.238421 255 255 255
-0.144739 0.069446 0.071340 255 255 255
-0.184323 -0.075479 0.250031 255 255 255
0.058839 -0.087365 -0.015561 255 255 255
0.041511 -0.079406 0.019612 255 255 255
-0.147481 -0.130960 0.019055 255 255 255
0.067297 0.154548 0.025676 255 255 255
-0.050858 -0.143533 -0.025221 255 255 255
-0.196595 -0.051120 0.308035 255 255 255
0.138079 -0.145044 -0.026065 255 255 255
-0.160138 0.097148 -0.047726 255 255 255
-0.217829 0.063396 0.061058 255 255 255
0.079654 0.072544 0.013645 255 255 255
0.063273 0.038972 -0.012437 255 255 255
-0.086125 -0.106677 -0.058229 255 255 255
0.153029 0.150561 -0.063219 255 255 255
-0.114752 -0.069603 0.032530 255 255 255
-0.070010 0.050311 0.017580 255 255 255
0.124321 0.130674 -0.078106 255 255 255
-0.214111 0.078639 0.201479 255 255 255
0.257476 0.018300 -0.041961 255 255 255
-0.010435 -0.100291 -0.007981 255 255 255
-0.174047 -0.151837 0.355611 255 255 255
-0.167539 0.129914 -0.053472 255 255 255
0.139636 -0.179888 -0.008976 255 255 255
-0.167292 0.117641 0.316530 255 255 255
0.046098 0.145573 -0.012060 255 255 255
-0.082639 0.085979 0.005395 255 255 255
-0.068022 -0.127129 0.029435 255 255 255
0.120470 -0.098734 -0.026471 255 255 255
-0.189014 0.157903 0.289630 255 255 255
-0.146815 0.155238 0.326781 255 255 255
0.116620 -0.051744 -0.030235 255 255 255
-0.212915 -0.059345 0.279447 255 255 255
-0.086539 0.015068 -0.316358 255 255 255
-0.151232 0.091125 -0.020206 255 255 255
-0.079362 -0.050720 0.001147 255 255 255
-0.212241 0.017850 -0.046624 255 255 255
0.228889 0.030407 -0.039082 255 255 255
-0.252076 -0.109339 -0.014670 255 255 255
0.132367 0.044726 0.011891 255 255 255
0.164351 0.002751 -0.019796 255 255 255
-0.173852 -0.050481 0.157222 255 255 255
-0.227407 0.058417 0.379417 255 255 255
-0.026752 0.060271 -0.113010 255 255 255
0.182560 0.119349 -0.015747 255 255 255
0.090346 -0.007406 -0.011450 255 255 255
-0.008435 0.156224 0.004295 255 255 255
0.054911 -0.141882 0.000038 255 255 255
0.023262 0.003478 0.015514 255 255 255
-0.209860 0.002090 0.268103 255 255 255
-0.006020 -0.189233 -0.034295 255 255 255
0.146265 0.135311 -0.015923 255 255 255
0.132287 0.128811 -0.046924 255 255 255
0.167108 -0.103907 0.013076 255 255 255
0.017729 0.057048 -0.008863 255 255 255
-0.128699 -0.016891 -0.016086 255 255 255
-0.221147 -0.105233 -0.103732 255 255 255
-0.068923 0.026138 0.020580 255 255 255
0.120639 -0.084709 -0.301739 255 255 255
0.159518 0.094922 -0.007666 255 255 255
-0.025206 -0.082727 -0.007153 255 255 255
-0.100083 0.141544 0.009992 255 255 255
-0.197406 0.083580 0.261775 255 255 255
-0.013350 -0.132910 -0.017816 255 255 255
-0.057872 -0.095457 0.015233 255 255 255
0.082058 0.006818 -0.012265 255 255 255
-0.042966 -0.079543 0.024668 255 255 255
-0.026550 0.058253 -0.273667 255 255 255
0.252277 0.090199 -0.061293 255 255 255
-0.197084 -0.027828 0.272692 255 255 255
-0.120976 0.160358 0.181973 255 255 255
0.114274 0.155273 -0.017747 255 255 255
-0.152303 0.129393 -0.103708 255 255 255
0.026758 0.138503 -0.020298 255 255 255
-0.018144 0.186190 -0.021324 255 255 255
-0.035522 -0.016964 -0.127194 255 255 255
-0.130068 -0.008526 -0.062586 255 255 255
-0.033552 0.099349 -0.018948 255 255 255
-0.199250 0.156808 0.342527 255 255 255
-0.003686 -0.135734 -0.083914 255 255 255
-0.150519 0.101201 -0.065977 255 255 255
0.145653 -0.016721 -0.013212 255 255 255
-0.227117 -0.015913 0.329131 255 255 255
-0.153885 0.105595 0.120657 255 255 255
0.076743 -0.086500 -0.011539 255 255 255
-0.187307 -0.127589 0.216676 255 255 255
-0.191261 -0.098762 0.101054 255 255 255
-0.074239 -0.166126 -0.022794 255 255 255
-0.079666 -0.083505 -0.040903 255 255 255
0.050138 -0.097676 -0.190483 255 255 255
-0.188132 0.113504 0.323601 255 255 255
0.099203 0.160819 -0.103400 255 255 255
0.246706 0.080956 -0.054023 255 255 255
-0.164178 0.049573 -0.064661 255 255 255
0.158395 0.160275 -0.055783 255 255 255
0.253748 -0.114921 -0.036231 255 255 255
0.189536 0.026503 0.026316 255 255 255
0.007818 0.102725 -0.001471 255 255 255
0.070854 0.046560 -0.009183 255 255 255
-0.230720 -0.038843 -0.017057 255 255 255
0.161950 0.067253 0.004326 255 255 255
-0.200150 0.131026 0.044378 255 255 255
-0.060780 0.066636 -0.250476 255 255 255
0.025139 -0.141086 -0.099845 255 255 255
-0.203624 0.079506 -0.033776 255 255 255
0.015703 0.120506 0.008265 255 255 255
0.101944 0.128466 -0.068657 255 255 255
-0.135397 0.060849 -0.055247 255 255 255
-0.089199 0.107949 -0.043099 255 255 255
-0.094314 0.002436 -0.021111 255 255 255
-0.148476 0.168655 0.293055 255 255 255
0.170621 0.009860 -0.145348 255 255 255
-0.178453 0.076441 0.311426 255 255 255
0.047671 -0.125328 0.004665 255 255 255
-0.012472 0.000595 -0.006145 255 255 255
-0.093808 0.108853 -0.096158 255 255 255
0.230788 -0.093423 -0.038508 255 255 255
0.085489 0.010474 -0.201475 255 255 255
-0.043072 -0.005395 -0.008830 255 255 255
0.035671 -0.037245 -0.129499 255 255 255
-0.186467 0.028475 0.290290 255 255 255
-0.117210 0.036167 -0.012965 255 255 255
-0.165703 -0.077387 0.212603 255 255 255
-0.216296 -0.120617 -0.026560 255 255 255
-0.077761 0.162614 -0.041627 255 255 255
-0.098792 0.096091 -0.041749 255 255 255
-0.034717 -0.138933 -0.010591 255 255 255
-0.156759 -0.037351 -0.076882 255 255 255
-0.186598 0.025642 0.055596 255 255 255
0.073502 -0.133080 -0.017629 255 255 255
0.007606 0.122974 -0.293276 255 255 255
-0.106304 0.066108 0.010030 255 255 255
0.065832 -0.142126 -0.170313 255 255 255
0.114637 -0.122078 -0.008860 255 255 255
0.151953 0.039676 -0.028920 255 255 255
-0.072450 0.024492 -0.004206 255 255 255
-0.085928 -0.022513 -0.012680 255 255 255
-0.195893 -0.143689 0.277026 255 255 255
0.025273 -0.137718 -0.191010 255 255 255
-0.082128 -0.009316 0.002451 255 255 255
0.159314 -0.031621 -0.012931 255 255 255
-0.097758 -0.046873 -0.011019 255 255 255
-0.143764 0.042592 -0.059022 255 255 255
0.159467 -0.030603 0.009136 255 255 255
0.097416 0.082367 0.002042 255 255 255
-0.102033 0.048588 -0.014648 255 255 255
-0.203086 -0.046891 0.319806 255 255 255
0.253452 -0.090501 -0.012942 255 255 255
0.031357 0.065872 -0.017435 255 255 255
-0.052736 -0.109483 -0.021199 255 255 255
0.030838 -0.073529 -0.132183 255 255 255
-0.146817 -0.028728 -0.007258 255 255 255
-0.175307 -0.092978 0.207867 255 255 255
-0.170957 -0.112230 0.289035 255 255 255
0.151296 0.104441 -0.005339 255 255 255
0.135319 0.092153 -0.015979 255 255 255
0.246624 0.012762 -0.000813 255 255 255
0.041863 -0.037604 -0.016695 255 255 255
-0.127914 0.082318 0.006047 255 255 255
0.060532 -0.042129 -0.001419 255 255 255
-0.190373 0.144867 0.293347 255 255 255
-0.220102 -0.012323 0.292485 255 255 255
0.027200 -0.164026 -0.021860 255 255 255
0.066017 0.092656 0.002073 255 255 255
0.121794 -0.134788 -0.044695 255 255 255
-0.185365 -0.067277 -0.011844 255 255 255
0.096177 -0.145049 -0.171379 255 255 255
0.197631 0.083304 -0.000016 255 255 255
-0.083475 -0.004650 -0.011056 255 255 255
0.008608 0.050449 -0.018295 255 255 255
-0.185457 -0.097840 0.164364 255 255 255
0.172238 0.075427 0.006286 255 255 255
-0.202691 -0.076233 0.330962 255 255 255
0.156666 0.111425 -0.132153 255 255 255
0.184720 -0.044995 -0.024621 255 255 255
-0.128078 0.105298 -0.118935 255 255 255
0.005079 -0.117175 -0.011310 255 255 255
-0.085116 0.174215 -0.003777 255 255 255
0.184157 0.076400 -0.041795 255 255 255
0.117740 0.027381 -0.196783 255 255 255
-0.072003 0.007295 -0.010729 255 255 255
0.193496 -0.075055 0.003916 255 255 255
-0.220149 0.020839 0.294273 255 255 255
-0.200841 -0.107832 0.243995 255 255 255
0.012503 0.035382 -0.247977 255 255 255
-0.204982 0.032408 0.277625 255 255 255
-0.004551 -0.072862 -0.008129 255 255 255
-0.157186 0.000878 -0.004153 255 255 255
0.273942 -0.105873 -0.050600 255 255 255
0.126098 -0.120709 0.018160 255 255 255
0.122545 -0.153104 -0.034878 255 255 255
-0.063442 0.141578 -0.107960 255 255 255
