ply
    		format ascii 1.0
    		element vertex 2048
    		property float x
    		property float y
    		property float z
    		property uchar red
    		property uchar green
    		property uchar blue
    		end_header
-0.034939 0.081882 0.012977 255 255 255
0.121762 0.238206 -0.050962 255 255 255
-0.088807 0.190542 0.103396 255 255 255
-0.110344 0.012564 0.295165 255 255 255
0.079970 0.251012 0.028884 255 255 255
-0.253707 0.135478 0.055856 255 255 255
-0.086599 0.118013 -0.289889 255 255 255
0.090254 0.043498 0.016329 255 255 255
-0.013555 0.183365 -0.092855 255 255 255
0.040627 -0.010148 0.023301 255 255 255
-0.139759 -0.114895 -0.233533 255 255 255
-0.064781 -0.117807 -0.133006 255 255 255
0.039765 -0.007751 0.026086 255 255 255
-0.079198 0.070201 0.149975 255 255 255
0.125092 -0.233314 0.056730 255 255 255
0.049230 0.029573 0.028908 255 255 255
-0.049379 -0.248251 0.105583 255 255 255
-0.267888 -0.173382 0.152995 255 255 255
0.063050 -0.128923 -0.341060 255 255 255
0.128687 -0.189812 0.001774 255 255 255
0.053222 -0.110159 0.036057 255 255 255
0.149846 0.032959 -0.081368 255 255 255
-0.222105 -0.116531 0.004616 255 255 255
-0.276407 -0.184606 0.207976 255 255 255
-0.131235 -0.223509 -0.295493 255 255 255
-0.112014 0.113479 -0.096214 255 255 255
0.133893 0.069815 0.032853 255 255 255
-0.096483 0.028058 0.313679 255 255 255
-0.225014 -0.228235 0.192027 255 255 255
-0.031050 0.241577 -0.106925 255 255 255
0.099099 0.001350 0.028393 255 255 255
0.093574 0.128620 -0.072947 255 255 255
0.013812 0.160479 -0.003125 255 255 255
0.083831 0.165986 0.034866 255 255 255
-0.251754 -0.044939 0.219423 255 255 255
-0.113069 0.179336 -0.060033 255 255 255
-0.218831 0.017471 0.377543 255 255 255
-0.114644 0.056138 -0.009593 255 255 255
-0.056480 0.011653 0.029353 255 255 255
-0.255362 0.222129 0.231825 255 255 255
0.052497 -0.015012 0.044249 255 255 255
0.208961 -0.082808 0.009419 255 255 255
-0.190529 0.238753 0.054140 255 255 255
0.209670 -0.139357 0.041434 255 255 255
0.067693 -0.100028 0.053050 255 255 255
-0.122532 -0.224993 -0.336315 255 255 255
0.037623 -0.196654 -0.073755 255 255 255
0.040536 0.073341 0.003107 255 255 255
-0.260580 0.137714 0.162865 255 255 255
-0.158090 0.070022 0.360069 255 255 255
-0.005614 0.025426 -0.010124 255 255 255
0.203726 0.016977 0.005451 255 255 255
0.265226 -0.071410 0.036097 255 255 255
-0.118119 0.229949 0.280809 255 255 255
0.174549 -0.177849 0.014824 255 255 255
-0.032034 -0.083701 -0.013506 255 255 255
0.079412 -0.238546 -0.383850 255 255 255
-0.087861 -0.232278 0.127598 255 255 255
0.136943 -0.227954 -0.134575 255 255 255
0.006802 -0.116189 -0.084208 255 255 255
0.110228 0.028335 0.028695 255 255 255
-0.027447 0.132260 0.015133 255 255 255
-0.158650 0.197863 -0.157359 255 255 255
0.029287 0.120399 0.043830 255 255 255
0.077974 0.243927 0.011743 255 255 255
-0.101828 -0.085917 -0.084830 255 255 255
0.044750 -0.074633 0.028076 255 255 255
-0.144495 -0.264720 0.350493 255 255 255
-0.259144 -0.086498 0.074284 255 255 255
-0.152707 0.259047 0.349828 255 255 255
0.161299 0.218867 -0.095486 255 255 255
0.169748 0.222520 -0.051743 255 255 255
0.148222 -0.225661 0.051696 255 255 255
-0.145160 -0.155273 -0.299919 255 255 255
-0.252305 0.154765 0.121183 255 255 255
-0.115810 0.169164 0.351770 255 255 255
-0.131542 -0.155036 0.365897 255 255 255
0.087680 -0.060979 0.032175 255 255 255
0.201515 0.228957 -0.362872 255 255 255
-0.202100 0.188263 -0.400404 255 255 255
-0.104603 0.242045 0.150275 255 255 255
-0.221182 0.038436 0.024418 255 255 255
-0.010085 -0.167168 -0.211731 255 255 255
0.129808 0.211589 0.048745 255 255 255
-0.069319 0.144106 0.240096 255 255 255
0.061721 -0.040619 0.039926 255 255 255
0.184490 -0.208743 0.004777 255 255 255
0.037211 0.065706 0.006586 255 255 255
0.087120 -0.042235 0.023562 255 255 255
-0.240385 0.234376 0.161473 255 255 255
-0.258210 0.250791 0.363006 255 255 255
-0.069189 -0.160124 0.230709 255 255 255
0.219404 0.178999 -0.010998 255 255 255
0.040692 0.102443 0.027315 255 255 255
0.186279 0.260801 -0.278087 255 255 255
-0.236089 -0.083159 0.059934 255 255 255
0.171601 0.023157 -0.042082 255 255 255
-0.046589 -0.169947 0.000031 255 255 255
-0.266612 0.058404 0.263550 255 255 255
-0.182294 -0.113234 -0.041962 255 255 255
0.194352 -0.021909 0.039413 255 255 255
0.058900 -0.106494 0.024128 255 255 255
0.168429 0.131404 -0.350980 255 255 255
0.049168 0.215207 0.030927 255 255 255
0.083846 -0.002208 0.017029 255 255 255
-0.225050 -0.203435 -0.308376 255 255 255
-0.080372 0.031665 0.132592 255 255 255
0.067319 0.070165 0.025706 255 255 255
-0.019359 -0.191251 -0.389367 255 255 255
0.175440 0.171701 0.035751 255 255 255
0.092751 0.166014 0.018786 255 255 255
-0.123204 -0.213763 0.307814 255 255 255
-0.191964 0.166642 -0.034191 255 255 255
-0.017115 0.054704 0.011608 255 255 255
-0.234180 -0.219793 0.098072 255 255 255
-0.072552 -0.217413 -0.373452 255 255 255
-0.104635 0.036277 0.188619 255 255 255
-0.232007 0.243184 0.292326 255 255 255
-0.037512 -0.048838 -0.096280 255 255 255
0.104202 -0.192271 0.047815 255 255 255
0.196804 -0.028280 -0.040135 255 255 255
0.204176 0.026782 0.045684 255 255 255
-0.112563 -0.045822 0.007865 255 255 255
-0.104482 0.221972 -0.193486 255 255 255
0.110481 0.151000 -0.094078 255 255 255
0.127057 0.166329 0.035588 255 255 255
0.068091 0.116068 0.045060 255 255 255
0.133828 0.241724 -0.190508 255 255 255
-0.051516 0.119056 0.023484 255 255 255
-0.143306 -0.173976 -0.262566 255 255 255
-0.189177 0.225582 0.016580 255 255 255
-0.156216 -0.013015 -0.023430 255 255 255
-0.074748 0.225400 0.140384 255 255 255
-0.044394 0.037362 0.003781 255 255 255
0.104052 -0.011566 0.039651 255 255 255
0.199491 0.051549 0.039492 255 255 255
-0.092685 0.021425 0.270526 255 255 255
0.175957 0.172953 -0.008172 255 255 255
-0.178466 -0.189130 -0.002479 255 255 255
0.102204 -0.070030 0.063641 255 255 255
-0.034628 0.076874 0.012286 255 255 255
-0.144748 0.249993 0.347637 255 255 255
0.234545 0.041346 0.019395 255 255 255
0.168563 0.126492 0.039672 255 255 255
-0.262647 0.113787 -0.381317 255 255 255
-0.081229 -0.053977 0.009405 255 255 255
-0.043987 -0.123711 -0.109873 255 255 255
-0.090013 0.226232 -0.056860 255 255 255
0.129611 -0.015911 0.039670 255 255 255
0.037660 -0.041625 0.039844 255 255 255
0.213693 -0.068485 0.034684 255 255 255
0.122137 0.149039 -0.096361 255 255 255
-0.213921 0.226830 -0.243624 255 255 255
-0.081642 -0.072959 0.126000 255 255 255
0.028239 0.092565 0.012575 255 255 255
0.015107 -0.081609 0.026975 255 255 255
-0.233886 -0.043944 0.373728 255 255 255
-0.049729 0.130976 -0.006534 255 255 255
-0.174956 -0.211604 -0.383192 255 255 255
0.001261 0.168412 0.017005 255 255 255
0.010551 -0.125977 -0.015254 255 255 255
-0.267795 -0.212268 0.294146 255 255 255
-0.142574 0.231693 0.144870 255 255 255
0.076378 -0.250483 0.016414 255 255 255
0.144033 -0.187003 0.041740 255 255 255
-0.267833 -0.191764 -0.387686 255 255 255
0.167507 -0.051743 0.039485 255 255 255
0.025142 0.084906 0.020529 255 255 255
-0.018295 -0.092301 -0.079488 255 255 255
0.150880 0.064637 0.031179 255 255 255
0.188523 -0.084344 0.056106 255 255 255
-0.037053 -0.206001 -0.084789 255 255 255
0.183186 -0.148545 -0.044419 255 255 255
0.131594 0.084405 0.042361 255 255 255
0.049284 -0.102205 -0.141463 255 255 255
-0.096537 -0.240357 -0.042861 255 255 255
0.114703 -0.256241 0.035457 255 255 255
-0.027073 0.189724 -0.186951 255 255 255
-0.083025 0.219649 0.002953 255 255 255
-0.081777 0.066030 0.218932 255 255 255
0.133241 0.141969 0.049797 255 255 255
0.189715 0.214895 0.022780 255 255 255
-0.202159 0.040781 -0.041363 255 255 255
-0.087199 0.018451 -0.108767 255 255 255
0.143783 0.000230 0.030004 255 255 255
0.200211 -0.201577 0.061873 255 255 255
-0.058191 -0.192362 -0.330496 255 255 255
0.023735 0.018586 0.042112 255 255 255
0.022191 0.211725 0.036148 255 255 255
0.081377 -0.045918 0.019739 255 255 255
0.201143 -0.164011 0.013107 255 255 255
-0.177269 0.097062 0.102109 255 255 255
0.062899 -0.085543 0.020848 255 255 255
0.018731 -0.169760 -0.023842 255 255 255
-0.031147 -0.207001 0.011160 255 255 255
-0.039808 0.069691 0.037942 255 255 255
0.108481 -0.106629 0.049060 255 255 255
0.022978 0.032253 -0.067907 255 255 255
0.105969 0.095511 0.021274 255 255 255
0.188727 0.087138 0.048386 255 255 255
0.200459 0.052119 0.025677 255 255 255
0.062444 0.013178 0.047822 255 255 255
0.198297 -0.063457 0.028031 255 255 255
-0.018678 -0.103576 0.020608 255 255 255
-0.230756 0.229140 0.189478 255 255 255
0.169918 -0.034488 0.045843 255 255 255
0.054508 0.102351 0.042867 255 255 255
-0.257554 -0.232910 0.295955 255 255 255
-0.140588 0.224240 -0.002425 255 255 255
0.086343 -0.108338 0.040879 255 255 255
0.212444 -0.103275 0.039224 255 255 255
-0.024460 0.048915 -0.028249 255 255 255
0.187770 -0.188680 -0.187463 255 255 255
0.159376 -0.219408 -0.218239 255 255 255
0.024895 -0.045536 0.018572 255 255 255
-0.004153 -0.077513 -0.056497 255 255 255
-0.248324 0.069555 0.177885 255 255 255
-0.087023 -0.220370 -0.171974 255 255 255
-0.121493 -0.232927 -0.081160 255 255 255
0.187357 -0.119830 -0.030080 255 255 255
0.184689 -0.057857 -0.086522 255 255 255
-0.084989 0.060569 0.176048 255 255 255
-0.160146 -0.231490 -0.072727 255 255 255
-0.257765 0.026611 0.197151 255 255 255
-0.006891 0.260294 -0.017314 255 255 255
-0.063046 -0.098500 0.173482 255 255 255
0.149223 -0.087526 0.052484 255 255 255
0.072897 0.219229 -0.111400 255 255 255
0.022563 0.103688 0.028228 255 255 255
0.022751 -0.241558 -0.107644 255 255 255
0.004780 0.204314 -0.364209 255 255 255
-0.079029 -0.140540 0.026266 255 255 255
-0.126004 -0.014268 0.330736 255 255 255
0.102159 -0.255507 0.011851 255 255 255
0.101952 -0.133845 0.048513 255 255 255
-0.018099 -0.052749 0.000078 255 255 255
0.043962 -0.100995 0.052669 255 255 255
0.053644 0.235056 -0.345061 255 255 255
-0.118655 0.218104 0.171812 255 255 255
-0.114752 0.244233 -0.050832 255 255 255
-0.010176 0.101410 0.002801 255 255 255
0.011900 0.078215 0.019773 255 255 255
0.198931 0.113399 0.033958 255 255 255
0.159419 -0.060674 -0.032206 255 255 255
0.015703 0.180374 0.008789 255 255 255
-0.097360 0.044250 0.235458 255 255 255
-0.031469 0.172485 0.020064 255 255 255
-0.258140 0.041988 0.369977 255 255 255
0.130001 -0.209779 0.042881 255 255 255
0.149260 -0.165663 0.044761 255 255 255
0.033132 0.080399 0.024344 255 255 255
-0.268189 0.097170 0.322969 255 255 255
0.144457 0.181260 0.035727 255 255 255
-0.011451 0.055092 0.038685 255 255 255
0.070051 -0.089936 0.051217 255 255 255
-0.235746 0.133432 0.118121 255 255 255
-0.066209 0.213588 -0.014808 255 255 255
-0.267800 -0.114340 0.151411 255 255 255
0.154960 -0.061480 0.030690 255 255 255
-0.065885 -0.094128 0.208828 255 255 255
-0.088433 0.218276 -0.138075 255 255 255
-0.233218 -0.207736 0.214709 255 255 255
0.182895 -0.147193 0.034806 255 255 255
-0.030226 -0.097075 0.017834 255 255 255
-0.227312 0.110482 0.388797 255 255 255
-0.108785 0.253730 0.076570 255 255 255
-0.051781 0.136796 0.008363 255 255 255
0.157516 0.020034 -0.071366 255 255 255
-0.228838 -0.176767 0.386313 255 255 255
-0.043412 -0.100310 0.052667 255 255 255
-0.078178 -0.115832 0.138415 255 255 255
-0.109941 0.197210 0.305066 255 255 255
0.168196 0.008519 0.042822 255 255 255
0.124839 0.097226 0.050441 255 255 255
-0.192223 -0.043841 -0.071337 255 255 255
0.110059 0.126755 -0.041323 255 255 255
0.024513 -0.197991 -0.047268 255 255 255
-0.162069 0.081334 -0.118669 255 255 255
0.091939 -0.108289 0.017677 255 255 255
-0.118040 0.079301 -0.109856 255 255 255
-0.053389 -0.137390 -0.074152 255 255 255
0.197617 0.123482 -0.029215 255 255 255
-0.240621 -0.009074 0.050173 255 255 255
-0.054561 -0.058900 0.021739 255 255 255
0.095701 -0.175007 0.028363 255 255 255
0.018863 0.213285 -0.042263 255 255 255
0.068946 0.014555 0.052713 255 255 255
0.101476 0.064105 0.041307 255 255 255
0.204475 -0.021611 0.050544 255 255 255
0.179590 0.051252 0.053227 255 255 255
-0.006260 -0.244610 -0.063650 255 255 255
0.026063 -0.009648 0.021669 255 255 255
-0.232502 -0.162839 0.012019 255 255 255
-0.094851 -0.067274 -0.145607 255 255 255
-0.187408 -0.038773 0.049266 255 255 255
0.084211 0.186506 0.017275 255 255 255
0.104603 0.164027 0.036964 255 255 255
0.162891 0.088245 0.045878 255 255 255
0.179983 0.109792 -0.002106 255 255 255
0.032002 0.012949 0.027683 255 255 255
0.130271 0.019182 0.066676 255 255 255
-0.128384 0.253735 0.026718 255 255 255
0.067013 -0.058940 0.036906 255 255 255
0.038345 0.147384 0.034193 255 255 255
-0.088467 0.072098 -0.109285 255 255 255
0.000151 -0.039597 0.018033 255 255 255
-0.083743 0.226145 -0.055393 255 255 255
-0.198210 -0.033469 -0.059640 255 255 255
-0.257636 0.040103 0.368770 255 255 255
0.140828 0.053682 0.035284 255 255 255
-0.054570 0.012912 -0.105772 255 255 255
0.124107 -0.008063 0.031438 255 255 255
0.171511 -0.132072 -0.229587 255 255 255
0.117363 -0.050447 0.037406 255 255 255
0.092564 -0.160232 0.038344 255 255 255
0.052514 -0.266082 -0.044622 255 255 255
-0.105959 -0.233031 0.081927 255 255 255
0.054749 0.223889 0.044724 255 255 255
0.128301 0.235558 -0.108392 255 255 255
-0.249975 0.091138 0.277770 255 255 255
-0.062348 0.017285 0.010375 255 255 255
0.208109 0.001044 0.035070 255 255 255
-0.257780 -0.104002 0.369045 255 255 255
-0.235160 0.251697 0.389460 255 255 255
-0.207868 0.109037 -0.029940 255 255 255
0.036681 -0.012955 0.021463 255 255 255
0.069738 0.035613 0.029698 255 255 255
-0.110242 0.062246 0.295908 255 255 255
-0.076369 0.190168 0.016244 255 255 255
-0.133033 -0.209987 -0.011248 255 255 255
0.192941 0.058150 -0.004299 255 255 255
0.083024 -0.174795 0.027566 255 255 255
-0.186035 0.090916 0.377981 255 255 255
0.027501 0.098568 0.040725 255 255 255
0.165258 -0.020765 0.050177 255 255 255
0.111152 -0.095613 0.035804 255 255 255
-0.085227 0.162628 0.026966 255 255 255
0.133869 -0.110436 0.020073 255 255 255
-0.128245 -0.024743 0.318126 255 255 255
-0.248330 -0.032042 0.082163 255 255 255
0.015754 0.103336 -0.060098 255 255 255
-0.032622 0.023631 0.021652 255 255 255
-0.167239 -0.220697 0.094258 255 255 255
-0.106776 -0.171268 -0.101109 255 255 255
-0.156072 -0.067890 0.394854 255 255 255
-0.076252 -0.135047 0.170383 255 255 255
0.020919 0.003754 0.011649 255 255 255
-0.095411 -0.110398 0.108055 255 255 255
-0.005452 0.231116 0.021695 255 255 255
0.019391 -0.266638 0.011782 255 255 255
-0.219037 -0.201486 0.126271 255 255 255
-0.207423 0.204619 -0.069037 255 255 255
-0.007449 -0.066501 0.019150 255 255 255
-0.016994 0.231044 -0.006729 255 255 255
-0.106972 0.221155 0.233438 255 255 255
-0.032247 -0.021492 0.021149 255 255 255
0.094769 -0.032473 0.030931 255 255 255
0.105820 -0.009942 0.030893 255 255 255
-0.164656 0.110229 -0.111677 255 255 255
0.100343 0.238338 -0.011479 255 255 255
-0.187664 0.042883 -0.049859 255 255 255
-0.265798 -0.031339 0.217118 255 255 255
0.141923 0.251186 -0.189666 255 255 255
0.125657 -0.048625 0.062656 255 255 255
0.171147 0.068928 -0.032222 255 255 255
0.191882 -0.209568 0.081980 255 255 255
-0.154571 0.136782 -0.064447 255 255 255
-0.160474 -0.237483 0.285642 255 255 255
0.056737 0.001683 -0.044604 255 255 255
-0.228811 0.267522 0.360842 255 255 255
0.082151 -0.007493 -0.078928 255 255 255
-0.230457 0.144563 0.034912 255 255 255
-0.270741 0.194171 0.238152 255 255 255
-0.081300 -0.240632 -0.129368 255 255 255
-0.014489 0.253381 0.052026 255 255 255
-0.103950 -0.199802 0.222805 255 255 255
-0.157746 0.011475 0.355622 255 255 255
0.025175 0.015322 0.006704 255 255 255
-0.027694 -0.165601 0.025681 255 255 255
0.032762 0.177486 0.026658 255 255 255
0.054210 -0.186374 0.036277 255 255 255
-0.117193 -0.206590 0.012896 255 255 255
-0.126932 -0.247683 0.217011 255 255 255
-0.106096 0.132685 -0.045535 255 255 255
-0.124481 0.052470 0.014153 255 255 255
0.046710 0.149799 -0.093486 255 255 255
-0.130284 -0.219659 0.022247 255 255 255
0.121597 0.230036 0.061198 255 255 255
0.105723 -0.014562 0.060351 255 255 255
0.125698 -0.029900 0.045968 255 255 255
0.177523 -0.206119 -0.040713 255 255 255
-0.095615 0.157516 0.317866 255 255 255
0.025426 -0.170912 0.021052 255 255 255
-0.226850 0.173249 0.097763 255 255 255
0.056708 -0.254762 -0.026718 255 255 255
0.204961 -0.020766 0.038810 255 255 255
0.109739 0.191679 0.019700 255 255 255
0.047456 0.168763 0.024783 255 255 255
0.205633 -0.215085 0.005214 255 255 255
-0.031749 0.025585 -0.016685 255 255 255
-0.071217 0.157693 -0.114478 255 255 255
0.136180 0.143493 -0.073065 255 255 255
-0.154573 -0.110339 -0.053017 255 255 255
0.213002 -0.193832 0.062897 255 255 255
-0.082669 0.023955 0.174415 255 255 255
-0.251928 0.140469 0.147485 255 255 255
-0.150760 -0.198490 -0.089049 255 255 255
-0.109736 0.082120 0.378766 255 255 255
-0.056982 -0.036746 0.020374 255 255 255
-0.126604 -0.150319 0.375788 255 255 255
0.127172 0.153698 0.044234 255 255 255
-0.119022 -0.236798 -0.117546 255 255 255
-0.093755 0.125008 -0.177534 255 255 255
0.029538 0.042434 0.003810 255 255 255
-0.128016 0.130693 -0.196498 255 255 255
-0.204652 0.219752 0.184653 255 255 255
-0.156057 -0.149286 -0.085845 255 255 255
-0.060176 -0.182340 0.004993 255 255 255
0.206196 -0.096935 -0.028889 255 255 255
0.179993 0.234870 -0.155221 255 255 255
-0.032602 0.012289 0.014173 255 255 255
0.131974 -0.092767 -0.380627 255 255 255
-0.072862 -0.260251 0.095169 255 255 255
0.048137 -0.057741 0.015641 255 255 255
0.140454 -0.026594 -0.045874 255 255 255
-0.162299 0.229550 -0.233186 255 255 255
0.082169 -0.067338 0.019885 255 255 255
0.158370 -0.188696 0.040601 255 255 255
0.035868 -0.140314 0.008018 255 255 255
-0.225397 0.130229 0.025549 255 255 255
-0.023569 -0.028576 -0.025101 255 255 255
0.055057 -0.048806 -0.068361 255 255 255
0.184743 -0.020381 -0.030926 255 255 255
-0.231308 -0.202115 0.061857 255 255 255
-0.105487 0.182677 -0.156734 255 255 255
0.090835 0.209008 -0.100247 255 255 255
0.011304 -0.120181 0.028111 255 255 255
0.044397 0.277043 0.023006 255 255 255
-0.070798 0.138672 -0.096394 255 255 255
0.131031 0.237790 0.065574 255 255 255
-0.210154 0.226308 0.200088 255 255 255
0.093382 -0.132276 0.035413 255 255 255
-0.250363 -0.166030 0.107652 255 255 255
0.082731 0.107621 0.024294 255 255 255
0.150194 0.133386 -0.300884 255 255 255
0.129767 -0.171682 0.052220 255 255 255
-0.133106 0.221720 0.376096 255 255 255
0.179804 0.036425 0.002103 255 255 255
0.075981 -0.053762 0.053934 255 255 255
-0.084277 0.261921 -0.084278 255 255 255
-0.007294 -0.098716 0.031744 255 255 255
-0.176687 -0.102117 -0.050433 255 255 255
0.063097 -0.096439 -0.314377 255 255 255
0.130994 0.126343 0.035501 255 255 255
-0.246072 -0.025170 0.225031 255 255 255
-0.077121 -0.001750 0.034098 255 255 255
0.006516 0.092602 0.010849 255 255 255
0.122986 -0.076831 0.041043 255 255 255
-0.033015 0.063761 0.022433 255 255 255
0.022716 0.109236 0.023330 255 255 255
-0.235858 -0.108046 0.070708 255 255 255
-0.081900 0.194047 0.004564 255 255 255
0.036020 -0.169331 0.022642 255 255 255
-0.193030 -0.224698 0.159033 255 255 255
0.061587 -0.163511 -0.366635 255 255 255
-0.150319 0.226787 -0.242727 255 255 255
0.107300 0.218458 0.064920 255 255 255
0.093150 0.148771 0.028180 255 255 255
-0.237055 -0.123549 0.394232 255 255 255
0.153531 0.127013 0.041060 255 255 255
0.172341 -0.236602 -0.024037 255 255 255
-0.181589 -0.234838 0.077478 255 255 255
0.014136 0.042402 0.015824 255 255 255
-0.043931 -0.033750 0.014251 255 255 255
-0.079761 -0.129048 0.159130 255 255 255
0.068638 0.198214 -0.074786 255 255 255
0.152609 0.085205 0.039608 255 255 255
-0.265638 0.108453 0.365923 255 255 255
-0.056358 0.084498 0.046596 255 255 255
-0.114991 0.245655 0.339705 255 255 255
0.086365 0.191284 0.033651 255 255 255
-0.259121 0.005051 0.127357 255 255 255
0.152933 0.029463 -0.057021 255 255 255
-0.252727 -0.013939 0.205269 255 255 255
0.143680 0.243025 0.040150 255 255 255
-0.157934 0.107877 -0.080534 255 255 255
-0.241683 -0.025125 0.155805 255 255 255
0.191178 0.070695 0.043909 255 255 255
0.198347 0.003159 0.033347 255 255 255
-0.243398 0.094134 0.025914 255 255 255
0.074372 0.042847 -0.094368 255 255 255
0.115736 -0.081546 0.030872 255 255 255
0.105524 0.148582 -0.366808 255 255 255
0.182401 0.159735 -0.021159 255 255 255
-0.268216 -0.042224 0.219881 255 255 255
0.098236 -0.079824 0.041646 255 255 255
0.144497 -0.116003 -0.312383 255 255 255
0.178012 0.198492 0.047072 255 255 255
0.076876 -0.212233 0.011351 255 255 255
0.126918 0.227225 0.014124 255 255 255
-0.050199 -0.233923 -0.149694 255 255 255
-0.127245 0.161167 -0.360235 255 255 255
-0.219362 0.214875 0.381860 255 255 255
-0.092392 0.033167 0.117052 255 255 255
0.185870 -0.013347 0.037859 255 255 255
-0.057951 0.021050 0.004762 255 255 255
-0.074065 -0.174900 -0.060381 255 255 255
0.080625 0.035609 -0.070472 255 255 255
0.109144 -0.135780 0.024172 255 255 255
0.117218 -0.202114 0.012459 255 255 255
0.047066 -0.162502 -0.273417 255 255 255
0.224796 -0.188501 0.039445 255 255 255
0.189759 -0.022649 0.026048 255 255 255
0.203343 -0.088631 0.027043 255 255 255
0.084732 0.106622 0.043331 255 255 255
-0.251403 0.135050 0.285422 255 255 255
-0.246970 0.129835 0.219373 255 255 255
-0.009749 0.219452 0.003636 255 255 255
0.038865 0.187697 0.013974 255 255 255
-0.092958 0.225156 -0.288844 255 255 255
0.076556 0.253490 0.018729 255 255 255
-0.128191 -0.224219 0.157700 255 255 255
-0.224163 -0.001264 -0.004627 255 255 255
0.049376 -0.173170 0.030895 255 255 255
0.181111 -0.181596 0.036039 255 255 255
-0.026844 0.236107 -0.063667 255 255 255
0.141447 -0.187844 0.075933 255 255 255
-0.081814 0.055105 0.141359 255 255 255
-0.121495 -0.218224 -0.156372 255 255 255
0.010461 0.117946 0.018697 255 255 255
0.048960 -0.258613 -0.064672 255 255 255
0.029423 0.096870 0.017673 255 255 255
-0.168332 0.180914 -0.246532 255 255 255
-0.023947 0.113735 0.015993 255 255 255
-0.059037 0.278453 0.105601 255 255 255
0.036754 -0.079694 0.027049 255 255 255
0.095227 -0.149757 0.037535 255 255 255
0.089491 -0.063621 0.010939 255 255 255
-0.260009 0.238379 0.251761 255 255 255
0.148102 0.246632 -0.100798 255 255 255
0.027027 0.186786 0.022215 255 255 255
-0.047075 0.019984 0.004397 255 255 255
-0.169506 0.234655 -0.052862 255 255 255
-0.239104 -0.037890 0.017919 255 255 255
-0.266580 -0.154504 0.263309 255 255 255
-0.238804 0.061141 0.109221 255 255 255
-0.209779 0.108423 0.020404 255 255 255
0.078755 -0.029924 0.044914 255 255 255
-0.047088 0.230610 -0.042768 255 255 255
-0.086855 0.111762 0.200756 255 255 255
-0.011567 -0.107616 0.032189 255 255 255
0.068138 0.150383 0.011362 255 255 255
-0.049135 -0.023316 0.086514 255 255 255
0.106133 -0.101192 0.052330 255 255 255
0.099276 -0.087572 -0.086186 255 255 255
-0.099664 0.072188 0.234688 255 255 255
-0.068108 0.049354 0.018604 255 255 255
0.033017 -0.253639 0.021788 255 255 255
0.076292 -0.050415 -0.058293 255 255 255
-0.155546 -0.252890 0.245386 255 255 255
-0.267772 0.157890 0.196873 255 255 255
0.141193 -0.131859 0.029543 255 255 255
0.045601 -0.077963 0.012909 255 255 255
0.085034 -0.107003 0.044318 255 255 255
-0.177337 0.068432 0.023686 255 255 255
0.095229 0.053786 0.035112 255 255 255
0.024003 0.155093 0.018690 255 255 255
0.182976 -0.005692 0.115900 255 255 255
0.066408 0.177775 0.039045 255 255 255
-0.252323 0.188424 0.126272 255 255 255
-0.251415 0.103460 -0.390693 255 255 255
-0.213815 0.057212 -0.061420 255 255 255
-0.248825 0.149147 0.371375 255 255 255
-0.047236 0.178003 0.032023 255 255 255
-0.084760 -0.070100 0.013338 255 255 255
0.004616 -0.018195 -0.009269 255 255 255
0.103187 -0.100044 -0.070584 255 255 255
-0.151953 -0.220539 -0.169078 255 255 255
0.023082 0.022167 0.057383 255 255 255
-0.048445 0.117443 0.157309 255 255 255
-0.049429 -0.207754 0.102890 255 255 255
0.028428 -0.111048 0.022863 255 255 255
-0.110993 0.089038 -0.049512 255 255 255
0.190044 -0.248536 -0.321712 255 255 255
0.005671 -0.018433 0.039437 255 255 255
0.083382 -0.041090 0.031836 255 255 255
-0.167514 0.215364 -0.200769 255 255 255
-0.064581 0.058184 -0.059174 255 255 255
-0.189796 -0.025020 0.382075 255 255 255
-0.175587 0.198458 -0.137005 255 255 255
0.102814 0.260965 -0.041110 255 255 255
0.057671 0.254669 -0.085022 255 255 255
-0.016396 0.141507 0.033311 255 255 255
-0.243839 0.011619 0.063839 255 255 255
0.141096 -0.117758 0.024678 255 255 255
0.119164 -0.046652 -0.061635 255 255 255
0.062796 0.122230 -0.389615 255 255 255
0.053682 0.175413 -0.151927 255 255 255
0.106015 0.031526 0.007920 255 255 255
0.139624 -0.002534 0.048480 255 255 255
-0.251281 -0.102886 0.241758 255 255 255
0.107730 -0.163550 0.034145 255 255 255
-0.183580 -0.140885 -0.335954 255 255 255
0.153381 0.240458 -0.169841 255 255 255
0.133443 -0.056415 0.031410 255 255 255
-0.106322 0.021936 0.279458 255 255 255
0.184390 -0.253033 -0.000304 255 255 255
0.095735 -0.237503 -0.179691 255 255 255
0.154892 0.266361 -0.018081 255 255 255
-0.169950 -0.001688 -0.048634 255 255 255
0.030479 -0.209370 0.042235 255 255 255
0.184659 -0.149691 0.043411 255 255 255
0.183192 0.213065 0.086345 255 255 255
-0.083523 0.110190 0.177490 255 255 255
-0.078387 -0.001882 0.237937 255 255 255
-0.194175 0.239280 0.402057 255 255 255
-0.090270 0.164678 0.216358 255 255 255
-0.133442 0.217703 -0.157305 255 255 255
-0.094233 -0.187845 -0.111029 255 255 255
0.099033 0.253242 -0.138565 255 255 255
-0.150264 -0.113352 0.061552 255 255 255
0.074205 -0.094163 0.017250 255 255 255
-0.083983 0.108201 0.097481 255 255 255
-0.123406 -0.224599 -0.031237 255 255 255
0.173895 0.144633 0.028051 255 255 255
-0.120841 0.208474 0.090418 255 255 255
-0.130505 0.196787 0.214355 255 255 255
0.092555 -0.030489 0.032310 255 255 255
0.202703 -0.181515 0.024775 255 255 255
-0.111808 -0.121275 0.260807 255 255 255
-0.125984 0.129243 0.327225 255 255 255
-0.157509 -0.055395 -0.055697 255 255 255
-0.099860 -0.214532 -0.114613 255 255 255
0.079645 0.263705 -0.356852 255 255 255
0.057709 0.103981 -0.078467 255 255 255
0.124204 0.080371 0.038167 255 255 255
0.171716 0.218593 0.058754 255 255 255
-0.066468 -0.083094 0.004071 255 255 255
-0.105673 0.044668 0.217579 255 255 255
0.191229 0.230356 -0.040242 255 255 255
0.057109 -0.025788 0.024053 255 255 255
0.147503 -0.046161 0.027553 255 255 255
0.188118 0.082196 -0.113831 255 255 255
0.117029 -0.244749 0.045329 255 255 255
0.071753 0.085387 0.032326 255 255 255
-0.157422 -0.162329 0.185859 255 255 255
-0.268921 0.117569 0.282019 255 255 255
0.004781 0.120505 0.012446 255 255 255
-0.111291 -0.189173 0.276527 255 255 255
0.111682 -0.226938 0.042457 255 255 255
0.003192 -0.037520 0.032837 255 255 255
0.095213 -0.043746 -0.074413 255 255 255
-0.142361 -0.218327 -0.128246 255 255 255
-0.138433 -0.210518 0.141216 255 255 255
0.101584 0.196849 0.034701 255 255 255
-0.264622 -0.076246 0.203180 255 255 255
0.160428 0.260053 -0.073908 255 255 255
-0.073586 0.111649 0.082465 255 255 255
-0.146562 0.232609 -0.041236 255 255 255
0.122236 0.005804 0.037152 255 255 255
0.156803 0.159322 0.055527 255 255 255
-0.133232 0.233605 -0.142346 255 255 255
-0.062700 -0.059331 0.140592 255 255 255
0.104935 0.114534 -0.099255 255 255 255
0.179014 -0.104202 0.031189 255 255 255
-0.108146 -0.146955 0.351303 255 255 255
-0.021320 -0.008312 0.035484 255 255 255
-0.266756 0.157720 0.261516 255 255 255
-0.075477 0.094803 0.272037 255 255 255
-0.255988 0.237266 0.366479 255 255 255
-0.012080 0.124638 -0.009121 255 255 255
0.057274 0.066053 -0.080988 255 255 255
-0.256288 -0.244477 0.316511 255 255 255
0.203677 0.198520 -0.099267 255 255 255
0.192763 -0.066793 -0.048457 255 255 255
0.153233 -0.158731 0.049012 255 255 255
-0.042390 -0.081371 -0.308930 255 255 255
0.134707 -0.084524 0.041383 255 255 255
0.146808 0.093312 -0.132743 255 255 255
0.166496 0.004663 0.024971 255 255 255
0.088058 -0.114714 0.053668 255 255 255
-0.159397 0.159213 -0.137797 255 255 255
-0.251076 0.104809 0.022985 255 255 255
-0.268289 0.171060 0.232095 255 255 255
-0.078263 -0.155616 0.208797 255 255 255
0.207374 -0.090625 0.041381 255 255 255
0.151628 0.112320 0.039781 255 255 255
0.125252 -0.248941 -0.119368 255 255 255
0.049116 -0.123189 0.029180 255 255 255
-0.183709 0.000697 0.322140 255 255 255
-0.242615 0.015720 0.181609 255 255 255
-0.012034 0.104256 -0.074848 255 255 255
0.120537 -0.038305 0.048448 255 255 255
0.040412 -0.050359 0.034317 255 255 255
0.115486 -0.098924 0.031104 255 255 255
-0.125225 -0.239728 0.293272 255 255 255
-0.263847 0.133066 0.165325 255 255 255
-0.024252 0.029146 0.022733 255 255 255
0.124129 0.061334 0.037102 255 255 255
-0.047967 -0.139180 0.021132 255 255 255
-0.229358 0.168722 -0.369288 255 255 255
-0.066739 -0.123680 -0.104560 255 255 255
0.094985 0.267799 0.008518 255 255 255
0.025609 -0.138704 0.028458 255 255 255
-0.230933 0.190541 0.143153 255 255 255
0.068781 0.117403 -0.128181 255 255 255
0.182117 -0.151442 -0.361192 255 255 255
0.001077 0.150698 0.001999 255 255 255
-0.095668 -0.126103 0.002040 255 255 255
0.100108 0.109117 0.019114 255 255 255
0.221048 0.098953 0.021567 255 255 255
-0.247960 0.249740 0.322060 255 255 255
0.095401 -0.190970 0.024396 255 255 255
0.130291 0.174789 0.026859 255 255 255
-0.185002 -0.244780 0.282720 255 255 255
-0.272962 -0.042248 0.341759 255 255 255
-0.091041 -0.030550 0.220669 255 255 255
0.062074 -0.085809 0.029451 255 255 255
0.183645 -0.050995 0.057542 255 255 255
0.121982 -0.087361 -0.129156 255 255 255
-0.178138 -0.234619 0.167773 255 255 255
0.074022 0.088602 0.036259 255 255 255
0.190010 -0.039556 0.032315 255 255 255
-0.064058 -0.251656 -0.007186 255 255 255
0.063079 0.059543 0.042507 255 255 255
-0.069047 0.218054 0.216870 255 255 255
-0.061815 -0.230110 -0.067854 255 255 255
0.080699 -0.018350 0.046816 255 255 255
-0.076630 -0.233798 0.268446 255 255 255
0.115577 0.113401 0.041383 255 255 255
0.195197 -0.214997 0.059760 255 255 255
0.188488 0.262966 -0.378087 255 255 255
-0.130670 0.060201 -0.306192 255 255 255
-0.098092 -0.068157 0.297926 255 255 255
0.142682 -0.229871 -0.105072 255 255 255
0.105969 0.193451 -0.383992 255 255 255
-0.250503 0.122465 0.241444 255 255 255
-0.066862 -0.118910 0.024388 255 255 255
-0.202578 -0.129419 0.025072 255 255 255
0.135974 -0.014229 0.043261 255 255 255
0.115820 0.104031 -0.087944 255 255 255
0.003992 0.224037 -0.015158 255 255 255
0.183441 0.188205 0.036547 255 255 255
-0.191226 -0.207089 -0.376815 255 255 255
0.059158 0.214397 -0.115148 255 255 255
0.158810 -0.175606 0.036506 255 255 255
0.087502 0.268561 -0.036566 255 255 255
-0.131750 0.225269 0.226986 255 255 255
-0.083950 0.180103 -0.065609 255 255 255
0.195353 0.086174 -0.028858 255 255 255
0.159146 0.103378 0.029875 255 255 255
-0.103482 -0.045331 0.231463 255 255 255
0.108837 -0.245499 0.032361 255 255 255
-0.031608 0.071481 0.002430 255 255 255
0.184485 -0.237620 -0.021404 255 255 255
0.205188 0.222294 0.046317 255 255 255
-0.108730 -0.221290 0.056508 255 255 255
-0.022269 0.238553 0.011533 255 255 255
-0.124766 -0.250673 0.098393 255 255 255
0.132906 0.079591 0.055814 255 255 255
0.046841 -0.242217 0.006439 255 255 255
0.068410 0.244004 -0.075837 255 255 255
0.039277 -0.148367 -0.090095 255 255 255
0.059037 -0.031827 0.051566 255 255 255
-0.081874 -0.070719 0.237974 255 255 255
0.209294 0.148603 0.045228 255 255 255
-0.253994 -0.159984 0.365435 255 255 255
-0.006670 0.172391 0.012023 255 255 255
-0.264547 0.110984 0.185765 255 255 255
-0.182412 0.192015 -0.103478 255 255 255
-0.105088 -0.112573 0.280997 255 255 255
0.025122 -0.143813 0.026710 255 255 255
0.076342 -0.174709 -0.069838 255 255 255
-0.124666 -0.093405 -0.118033 255 255 255
0.064917 0.003315 0.035835 255 255 255
-0.001477 -0.066431 0.032923 255 255 255
-0.241087 -0.071164 0.173574 255 255 255
0.067125 -0.225552 0.044895 255 255 255
-0.048124 0.165103 0.103721 255 255 255
-0.143354 -0.038485 -0.090266 255 255 255
0.061086 0.030369 -0.092264 255 255 255
0.065950 -0.028170 0.048670 255 255 255
-0.186040 -0.225765 0.053566 255 255 255
0.179441 0.257629 0.022315 255 255 255
-0.168816 -0.099187 -0.113181 255 255 255
-0.032979 0.082346 -0.077750 255 255 255
0.043045 0.231438 -0.099865 255 255 255
-0.221873 0.033143 0.035927 255 255 255
0.195946 0.146343 0.025187 255 255 255
-0.107089 -0.160214 0.017458 255 255 255
-0.099934 -0.242006 0.282875 255 255 255
0.015137 0.179873 -0.000299 255 255 255
0.145700 -0.074038 0.038676 255 255 255
-0.127162 0.248155 0.143914 255 255 255
0.118549 0.157110 0.045872 255 255 255
-0.058775 -0.093766 0.015382 255 255 255
-0.093423 -0.254704 -0.075338 255 255 255
0.169544 -0.054069 0.042088 255 255 255
-0.262795 0.178080 0.372733 255 255 255
-0.240478 0.236383 0.066081 255 255 255
0.051935 -0.126718 0.041277 255 255 255
-0.153717 -0.199214 0.376127 255 255 255
-0.153698 0.101480 -0.397104 255 255 255
-0.227378 0.030998 0.057068 255 255 255
0.022979 0.012095 0.016602 255 255 255
-0.220657 0.042787 0.009020 255 255 255
0.225985 0.251819 0.011976 255 255 255
0.011238 -0.028669 0.021802 255 255 255
0.112528 0.032313 0.042898 255 255 255
0.171446 0.000432 0.039410 255 255 255
-0.228374 -0.122481 0.034954 255 255 255
-0.156158 0.185972 0.378006 255 255 255
-0.067933 0.182174 -0.261225 255 255 255
0.198682 0.247539 -0.012080 255 255 255
0.058573 -0.065759 0.027333 255 255 255
-0.081032 0.216166 -0.081481 255 255 255
0.038549 -0.202787 0.029158 255 255 255
0.075351 -0.107487 -0.103909 255 255 255
-0.102177 -0.128243 0.239401 255 255 255
0.156568 -0.239030 0.031614 255 255 255
0.199742 0.244171 -0.028259 255 255 255
0.090422 0.254964 -0.201103 255 255 255
0.065328 -0.179978 -0.103189 255 255 255
0.105764 0.128388 0.037867 255 255 255
0.036953 0.044279 0.022839 255 255 255
-0.019321 -0.133969 0.018612 255 255 255
-0.000108 -0.031176 -0.137230 255 255 255
0.126486 -0.216264 -0.381825 255 255 255
0.182677 0.148111 0.047406 255 255 255
0.160341 -0.071416 0.043215 255 255 255
-0.022552 0.236912 0.017531 255 255 255
-0.084710 0.127673 0.246909 255 255 255
0.089377 0.033798 0.024396 255 255 255
0.056632 -0.218982 -0.024625 255 255 255
0.188863 -0.098211 0.047701 255 255 255
-0.025444 0.065603 -0.067067 255 255 255
-0.179221 0.216490 -0.387497 255 255 255
0.188783 0.232174 0.011870 255 255 255
-0.231763 0.104913 0.063019 255 255 255
-0.153234 0.246933 0.180876 255 255 255
0.152180 0.113575 0.046852 255 255 255
-0.013635 0.209895 0.022413 255 255 255
-0.035904 0.019726 0.056311 255 255 255
0.062970 0.169056 0.034034 255 255 255
-0.098978 -0.114791 -0.215394 255 255 255
-0.165142 -0.220980 -0.021228 255 255 255
-0.093556 -0.074965 0.013951 255 255 255
-0.116435 0.183454 0.355611 255 255 255
-0.053905 -0.230488 -0.037738 255 255 255
-0.043798 0.107699 0.074797 255 255 255
0.087787 0.040804 0.035203 255 255 255
-0.244414 -0.164897 0.378877 255 255 255
-0.141728 0.248525 0.081274 255 255 255
0.120128 -0.073102 0.043410 255 255 255
-0.248320 -0.150605 0.069304 255 255 255
-0.205191 -0.067854 -0.021483 255 255 255
0.018025 -0.105394 0.005805 255 255 255
-0.120380 -0.241370 0.037842 255 255 255
-0.134009 -0.083190 0.043957 255 255 255
-0.261285 0.217297 0.312214 255 255 255
0.156317 0.141073 0.021826 255 255 255
0.198493 -0.028245 -0.042647 255 255 255
-0.243524 -0.021838 0.194495 255 255 255
0.144788 0.193677 0.056889 255 255 255
0.180335 -0.001301 0.008370 255 255 255
0.206280 0.195769 -0.052608 255 255 255
-0.013801 0.146737 0.025698 255 255 255
0.139137 0.099823 0.022225 255 255 255
0.063334 -0.155086 0.010495 255 255 255
0.203922 0.059103 0.032954 255 255 255
-0.064238 0.156059 0.072207 255 255 255
-0.148340 0.118349 -0.325115 255 255 255
0.115852 -0.252279 -0.100005 255 255 255
0.014866 0.095930 0.021113 255 255 255
0.076637 0.235949 -0.046149 255 255 255
0.168636 0.225114 -0.018202 255 255 255
-0.197153 0.157377 -0.021481 255 255 255
-0.184216 0.229112 0.019961 255 255 255
-0.033501 -0.012918 0.019131 255 255 255
-0.179019 0.256466 0.399438 255 255 255
0.100204 0.121157 -0.080459 255 255 255
-0.169067 0.172156 0.320375 255 255 255
0.162309 -0.195823 0.038010 255 255 255
0.022810 -0.012065 0.016290 255 255 255
-0.169050 0.148380 -0.102525 255 255 255
0.186326 -0.090549 0.037153 255 255 255
0.060099 0.116193 -0.332285 255 255 255
0.006454 0.134145 0.022899 255 255 255
0.020624 0.023325 -0.050272 255 255 255
-0.088736 0.051548 0.237535 255 255 255
-0.171782 0.186777 -0.120546 255 255 255
-0.217710 -0.095076 0.058241 255 255 255
-0.042853 -0.017449 0.012102 255 255 255
0.087881 0.259103 0.043290 255 255 255
-0.099913 0.227873 -0.152452 255 255 255
0.097382 -0.241330 0.039576 255 255 255
-0.100218 -0.236790 0.072539 255 255 255
-0.072339 -0.000786 0.226580 255 255 255
-0.076259 -0.202860 0.010534 255 255 255
-0.124834 0.186218 -0.377505 255 255 255
-0.103685 0.096325 -0.103705 255 255 255
0.042238 -0.220263 -0.349341 255 255 255
0.061930 -0.100965 0.043509 255 255 255
0.171912 0.213040 -0.134294 255 255 255
-0.051057 -0.046501 0.016695 255 255 255
0.042947 -0.026666 0.022236 255 255 255
-0.088635 -0.197632 0.150082 255 255 255
0.042224 -0.085481 -0.170054 255 255 255
-0.045937 0.010539 0.017625 255 255 255
0.153734 -0.197119 0.035848 255 255 255
-0.001292 0.076541 0.028121 255 255 255
-0.025100 0.063919 0.006422 255 255 255
0.197113 -0.176322 0.002087 255 255 255
0.018271 0.172605 0.024515 255 255 255
0.106246 0.138350 0.026379 255 255 255
-0.075874 -0.195146 0.217084 255 255 255
0.211016 -0.122583 -0.000858 255 255 255
0.062175 0.120013 0.015574 255 255 255
0.064712 -0.050675 0.032968 255 255 255
0.009770 -0.128682 -0.314719 255 255 255
0.101849 0.016956 0.010850 255 255 255
-0.067872 -0.182633 0.172934 255 255 255
-0.106918 -0.270357 0.253747 255 255 255
0.111174 0.131962 0.032829 255 255 255
0.131923 -0.042036 0.029464 255 255 255
0.192468 0.020706 0.040416 255 255 255
0.088481 -0.186927 0.051147 255 255 255
-0.137736 0.272621 0.013959 255 255 255
0.063912 -0.046539 0.020892 255 255 255
-0.110630 0.096311 0.294513 255 255 255
-0.177062 -0.037185 0.342322 255 255 255
0.060796 -0.252676 0.022507 255 255 255
0.100455 0.161276 0.030319 255 255 255
0.163090 -0.250689 -0.058663 255 255 255
-0.163546 0.017555 -0.085616 255 255 255
0.230913 -0.221853 -0.329467 255 255 255
0.177453 0.220809 -0.128806 255 255 255
0.051515 0.032728 0.004947 255 255 255
0.115272 0.055925 0.024949 255 255 255
-0.134205 -0.228062 0.163611 255 255 255
0.207561 0.108678 0.033801 255 255 255
-0.151469 -0.147840 0.392875 255 255 255
0.202358 0.185556 -0.258277 255 255 255
0.202162 0.108120 -0.071186 255 255 255
-0.220126 0.206894 0.108066 255 255 255
0.051201 -0.014304 0.006237 255 255 255
0.007609 0.129253 0.026428 255 255 255
0.187884 0.154733 -0.107210 255 255 255
0.020662 0.142796 -0.340959 255 255 255
0.002701 -0.052980 -0.014679 255 255 255
0.169600 -0.197459 -0.148193 255 255 255
-0.166734 0.010586 0.396900 255 255 255
-0.016825 -0.162414 0.068599 255 255 255
-0.233964 0.206248 -0.407570 255 255 255
-0.258264 0.078648 0.327798 255 255 255
0.188761 -0.030607 0.030044 255 255 255
-0.030873 -0.101419 0.013473 255 255 255
0.181200 -0.062070 -0.031805 255 255 255
0.145337 -0.249761 -0.199276 255 255 255
0.159605 -0.265232 -0.034547 255 255 255
-0.108470 0.227527 -0.001652 255 255 255
0.114218 0.016382 0.036774 255 255 255
0.166092 0.033823 0.052319 255 255 255
0.088466 -0.242658 0.049725 255 255 255
0.124881 0.086276 0.046374 255 255 255
0.151833 -0.106325 0.029664 255 255 255
-0.182425 -0.108127 -0.090994 255 255 255
0.088779 0.023332 0.015655 255 255 255
0.020904 0.228183 -0.295637 255 255 255
-0.274968 -0.076602 0.260148 255 255 255
0.058001 -0.151586 0.037863 255 255 255
-0.032371 0.235362 0.025747 255 255 255
0.002453 -0.003527 0.029423 255 255 255
0.022546 -0.244081 -0.014834 255 255 255
-0.127061 0.257158 0.315831 255 255 255
0.197404 0.220281 -0.088524 255 255 255
0.092392 0.227833 -0.043088 255 255 255
-0.097937 0.136226 0.214598 255 255 255
-0.007799 -0.259307 0.031060 255 255 255
0.105500 -0.132436 -0.115563 255 255 255
0.146934 -0.116469 0.051860 255 255 255
0.208543 -0.253505 0.004201 255 255 255
0.158262 -0.257791 -0.166008 255 255 255
0.056252 -0.049914 0.004490 255 255 255
-0.078640 0.209946 -0.048373 255 255 255
0.180484 0.254379 -0.011770 255 255 255
0.181309 0.191872 0.077027 255 255 255
-0.065454 0.169466 0.037534 255 255 255
-0.232038 0.032408 0.100443 255 255 255
0.170332 -0.182129 0.006314 255 255 255
0.132498 -0.086870 0.029642 255 255 255
-0.111637 -0.217749 -0.084440 255 255 255
0.099373 0.176574 0.045034 255 255 255
-0.061042 -0.158134 -0.274181 255 255 255
0.070794 -0.220239 -0.089246 255 255 255
0.118888 0.017872 0.045569 255 255 255
-0.010034 -0.085557 0.009128 255 255 255
-0.025589 0.152180 -0.000658 255 255 255
0.220899 -0.168864 -0.043952 255 255 255
-0.040180 -0.104378 -0.006837 255 255 255
0.015329 0.053439 0.007789 255 255 255
-0.046062 0.183737 -0.002531 255 255 255
0.048425 -0.048516 -0.074347 255 255 255
-0.097928 -0.044280 0.211287 255 255 255
-0.002115 -0.089791 -0.101071 255 255 255
0.195503 0.059620 0.020912 255 255 255
-0.107242 -0.124210 0.312275 255 255 255
0.137107 0.005033 0.016446 255 255 255
0.108122 0.167378 0.027257 255 255 255
-0.243213 0.194517 0.067205 255 255 255
-0.055400 0.159126 -0.403524 255 255 255
-0.068453 -0.230290 0.016883 255 255 255
-0.238304 -0.029668 0.104681 255 255 255
0.024257 -0.270505 -0.053484 255 255 255
-0.073193 0.064244 0.127167 255 255 255
-0.040633 -0.012456 -0.088212 255 255 255
0.155985 -0.246059 0.050981 255 255 255
-0.254929 0.012646 0.153139 255 255 255
0.181310 -0.114094 0.039494 255 255 255
-0.077693 0.234545 -0.066946 255 255 255
0.205044 -0.109897 0.042138 255 255 255
-0.177860 0.131465 -0.197982 255 255 255
-0.114126 -0.194036 -0.200961 255 255 255
0.042602 0.160010 0.028122 255 255 255
-0.101372 -0.133021 0.307186 255 255 255
-0.067879 -0.074690 0.195838 255 255 255
-0.059059 -0.214630 -0.011517 255 255 255
-0.120054 0.214614 0.148052 255 255 255
-0.086231 0.062826 0.161182 255 255 255
0.058189 -0.079050 -0.058897 255 255 255
-0.058375 0.227546 -0.158615 255 255 255
-0.214297 0.166606 0.125050 255 255 255
-0.139904 0.063510 0.283995 255 255 255
0.092231 0.092757 0.025380 255 255 255
0.016578 -0.019003 0.029870 255 255 255
0.189681 -0.165100 0.000019 255 255 255
-0.235722 0.054207 0.086859 255 255 255
-0.036139 -0.168953 0.015657 255 255 255
0.143045 -0.219605 0.022913 255 255 255
0.157134 0.225327 0.033243 255 255 255
0.111730 0.212377 0.025373 255 255 255
-0.113860 -0.071464 0.337200 255 255 255
0.017348 -0.020912 0.020629 255 255 255
0.036192 0.148654 0.032799 255 255 255
0.000347 -0.125249 0.018468 255 255 255
-0.058888 0.013515 0.106991 255 255 255
0.055223 0.063774 0.038802 255 255 255
-0.041255 -0.216662 0.014632 255 255 255
-0.241754 0.135927 0.104130 255 255 255
0.213490 0.210247 -0.010703 255 255 255
0.172581 0.163060 0.049104 255 255 255
0.062423 -0.166554 0.025216 255 255 255
0.148433 -0.198618 0.041275 255 255 255
-0.051587 -0.002207 0.029994 255 255 255
0.072738 -0.038571 -0.082239 255 255 255
0.196069 0.020919 0.050771 255 255 255
0.000546 -0.010561 0.055362 255 255 255
-0.084696 -0.051461 0.223320 255 255 255
0.050075 -0.194676 -0.099103 255 255 255
-0.242055 0.228813 0.335832 255 255 255
0.164362 -0.209766 -0.001119 255 255 255
0.078570 0.172812 0.036435 255 255 255
-0.112059 0.233195 -0.299004 255 255 255
-0.141763 -0.257932 0.299242 255 255 255
0.146696 -0.020724 0.056193 255 255 255
-0.042810 0.201094 -0.366879 255 255 255
0.159430 0.253370 0.031224 255 255 255
-0.042621 0.064323 0.002455 255 255 255
0.087070 -0.195052 0.040124 255 255 255
-0.076429 0.031376 0.261307 255 255 255
0.022952 0.209123 0.030662 255 255 255
-0.029951 0.037222 -0.106046 255 255 255
-0.193845 0.031675 -0.012461 255 255 255
-0.038296 0.164992 0.017143 255 255 255
-0.007610 0.124773 -0.241679 255 255 255
-0.128136 -0.083779 0.324027 255 255 255
-0.178812 -0.179133 -0.111208 255 255 255
-0.178173 0.146892 -0.029467 255 255 255
0.058795 0.124969 -0.099196 255 255 255
0.119136 0.042634 0.039118 255 255 255
-0.159107 -0.202939 -0.014118 255 255 255
-0.128056 -0.109403 0.367202 255 255 255
-0.134612 0.203823 0.356895 255 255 255
-0.116971 0.166751 0.331865 255 255 255
-0.086808 0.130033 0.167048 255 255 255
0.062279 0.147977 0.028689 255 255 255
-0.034383 0.143678 0.021121 255 255 255
0.204846 -0.004455 0.032190 255 255 255
-0.112366 0.259521 0.203465 255 255 255
-0.243881 0.221903 0.106819 255 255 255
-0.069647 0.043179 0.167425 255 255 255
0.192425 0.203375 -0.202965 255 255 255
-0.286968 0.072431 0.203043 255 255 255
-0.124311 -0.191302 -0.084451 255 255 255
0.084945 0.061543 -0.137265 255 255 255
0.071654 0.270082 -0.037062 255 255 255
0.106250 -0.141431 -0.191988 255 255 255
0.056224 0.095859 0.048170 255 255 255
0.180393 -0.151829 -0.224982 255 255 255
-0.238993 -0.153652 0.140766 255 255 255
-0.096514 0.163878 -0.320236 255 255 255
-0.085512 -0.230250 0.296616 255 255 255
0.137494 -0.027055 0.035600 255 255 255
-0.204421 0.191690 -0.301874 255 255 255
-0.252103 0.203940 0.195040 255 255 255
0.050542 -0.036287 0.010605 255 255 255
-0.113556 -0.023645 -0.066946 255 255 255
0.174983 -0.205114 -0.143149 255 255 255
0.191964 0.070398 0.048917 255 255 255
0.074802 0.097691 0.018059 255 255 255
-0.076288 -0.079634 0.275695 255 255 255
0.117219 0.291254 -0.118065 255 255 255
-0.028915 0.000709 0.013491 255 255 255
0.152068 0.235265 -0.211597 255 255 255
0.143489 0.216519 0.019071 255 255 255
0.007059 0.021990 0.029853 255 255 255
-0.176514 0.152644 0.362863 255 255 255
-0.080155 0.065583 0.212918 255 255 255
0.105906 0.206665 -0.072862 255 255 255
0.093403 0.131080 -0.112249 255 255 255
-0.076216 0.193953 0.204712 255 255 255
0.114845 -0.088770 0.036818 255 255 255
0.049209 -0.190297 -0.226673 255 255 255
0.178304 0.225401 0.037905 255 255 255
-0.170217 0.202294 0.032559 255 255 255
-0.013616 -0.215759 -0.115010 255 255 255
-0.102883 0.236699 -0.100912 255 255 255
0.204727 0.255045 0.028378 255 255 255
0.164181 -0.019096 0.041246 255 255 255
0.070349 0.132486 -0.184682 255 255 255
0.128388 -0.169537 0.040563 255 255 255
0.198394 0.208929 0.061630 255 255 255
-0.262528 -0.008716 0.162141 255 255 255
-0.072597 -0.029720 0.105338 255 255 255
-0.098183 0.144364 -0.202589 255 255 255
-0.170729 -0.104439 -0.321890 255 255 255
0.125142 0.097190 0.059782 255 255 255
0.036809 -0.149351 0.042264 255 255 255
-0.045087 -0.016074 0.020790 255 255 255
0.188917 -0.199370 -0.307295 255 255 255
0.103283 -0.003139 0.044716 255 255 255
0.087686 -0.213882 0.029008 255 255 255
0.048304 0.130434 0.028889 255 255 255
0.144474 0.196365 0.041728 255 255 255
0.167825 0.059194 0.045402 255 255 255
0.165887 0.106848 -0.002156 255 255 255
0.057588 -0.063419 0.000923 255 255 255
-0.096036 -0.001478 0.206350 255 255 255
0.087995 0.243532 0.018054 255 255 255
-0.114394 0.187770 0.339508 255 255 255
-0.155324 0.088886 -0.120409 255 255 255
0.184188 0.197657 -0.367821 255 255 255
-0.185529 0.218052 0.126362 255 255 255
-0.128244 0.091491 -0.117070 255 255 255
-0.247317 0.242487 0.111934 255 255 255
0.237802 -0.092044 0.034792 255 255 255
0.168561 0.168499 -0.152679 255 255 255
0.203489 -0.225061 -0.334920 255 255 255
-0.187514 0.094095 -0.028823 255 255 255
0.006937 -0.060769 0.032916 255 255 255
0.161473 -0.096254 -0.052820 255 255 255
-0.187552 -0.208134 0.385870 255 255 255
0.088509 0.054268 0.040245 255 255 255
-0.198833 -0.055939 0.390783 255 255 255
0.120539 -0.035852 0.041040 255 255 255
0.070752 -0.059782 0.030336 255 255 255
-0.048325 -0.014347 0.005320 255 255 255
-0.089237 0.211162 0.191147 255 255 255
0.018150 0.253708 0.003007 255 255 255
-0.025246 -0.245592 -0.104437 255 255 255
-0.268793 0.212946 0.218736 255 255 255
-0.049441 0.208418 0.000526 255 255 255
-0.245464 0.114697 0.110176 255 255 255
0.131363 -0.002853 0.048947 255 255 255
0.003063 0.051946 0.024360 255 255 255
0.126330 0.255388 -0.264839 255 255 255
0.180958 0.088638 0.047855 255 255 255
-0.137128 0.215089 0.051666 255 255 255
0.152225 -0.130155 0.035755 255 255 255
0.125539 0.234396 -0.116465 255 255 255
-0.271540 -0.082416 0.091076 255 255 255
0.020519 -0.073546 -0.387599 255 255 255
0.203052 -0.018332 0.008246 255 255 255
0.022374 0.267019 -0.039777 255 255 255
-0.066895 0.193841 0.166840 255 255 255
-0.119530 -0.215836 -0.206842 255 255 255
