ply
    		format ascii 1.0
    		element vertex 2048
    		property float x
    		property float y
    		property float z
    		property uchar red
    		property uchar green
    		property uchar blue
    		end_header
0.216615 0.080169 -0.033230 255 255 255
-0.020988 -0.136244 -0.043239 255 255 255
0.105151 0.158900 -0.029055 255 255 255
-0.073428 -0.161394 -0.053641 255 255 255
-0.219571 0.007944 0.308769 255 255 255
-0.194987 0.162014 0.250890 255 255 255
-0.015022 0.069464 -0.074885 255 255 255
-0.141534 0.013213 -0.055127 255 255 255
-0.173917 -0.068782 -0.028225 255 255 255
-0.005631 -0.105230 -0.049329 255 255 255
-0.259685 -0.057253 0.292144 255 255 255
-0.192108 -0.120701 0.077375 255 255 255
-0.170357 0.020563 -0.045069 255 255 255
-0.192478 -0.135857 -0.005767 255 255 255
-0.134151 0.193536 -0.062399 255 255 255
0.204887 -0.173862 -0.050882 255 255 255
-0.148870 -0.150741 0.101431 255 255 255
-0.044005 0.220671 0.000006 255 255 255
-0.117964 -0.109055 -0.059069 255 255 255
-0.068029 0.179084 -0.037918 255 255 255
-0.166255 0.178353 0.168499 255 255 255
0.034755 -0.117915 -0.054278 255 255 255
0.084061 -0.044883 -0.056977 255 255 255
0.117770 0.186540 -0.044563 255 255 255
-0.081169 0.122921 0.038692 255 255 255
-0.027645 0.181031 -0.058293 255 255 255
-0.175389 0.078867 0.119496 255 255 255
-0.194375 -0.113182 0.268749 255 255 255
0.178721 0.143676 -0.030497 255 255 255
0.097477 -0.002768 -0.042807 255 255 255
0.281363 -0.014533 -0.015194 255 255 255
0.118501 -0.124844 -0.107850 255 255 255
-0.107476 0.026677 -0.033240 255 255 255
-0.146078 -0.142860 0.186873 255 255 255
0.012664 -0.075756 -0.047094 255 255 255
-0.164171 0.201380 0.231652 255 255 255
0.091912 0.005272 -0.091435 255 255 255
-0.190188 -0.012278 0.148044 255 255 255
-0.189340 0.151339 0.262542 255 255 255
-0.099854 -0.129550 0.020968 255 255 255
-0.100328 0.162669 -0.057401 255 255 255
-0.233604 -0.126160 0.235484 255 255 255
-0.244172 0.068388 0.283169 255 255 255
-0.122530 -0.060158 -0.058087 255 255 255
-0.084146 -0.053769 -0.061147 255 255 255
-0.148597 0.134356 -0.053815 255 255 255
0.119551 -0.144960 -0.057817 255 255 255
-0.077437 -0.127238 -0.057392 255 255 255
-0.168152 -0.157744 0.158204 255 255 255
-0.110732 0.006447 -0.079432 255 255 255
-0.030997 0.127045 -0.059149 255 255 255
-0.002734 0.081490 -0.081800 255 255 255
-0.093575 -0.123329 -0.064077 255 255 255
0.132582 0.161183 -0.037749 255 255 255
0.214789 -0.052176 -0.045938 255 255 255
0.150586 -0.092374 -0.036835 255 255 255
0.093516 -0.171486 -0.113487 255 255 255
-0.202278 0.045471 0.275131 255 255 255
0.072665 -0.159307 -0.061249 255 255 255
-0.161768 0.119237 0.169339 255 255 255
-0.033295 -0.189990 -0.034693 255 255 255
0.221081 -0.050672 -0.030568 255 255 255
0.152114 0.046021 -0.038901 255 255 255
0.061331 0.118903 -0.038038 255 255 255
0.235804 0.014088 -0.037159 255 255 255
-0.147425 -0.010847 -0.046127 255 255 255
-0.117883 0.144719 -0.052502 255 255 255
0.165521 0.071046 -0.022211 255 255 255
-0.173794 -0.021208 -0.009151 255 255 255
0.148930 -0.103596 -0.066982 255 255 255
-0.204010 -0.002335 0.020784 255 255 255
-0.228934 -0.044428 0.274945 255 255 255
-0.070628 -0.156200 0.014657 255 255 255
-0.229603 0.042849 0.292473 255 255 255
-0.159406 0.087870 -0.059840 255 255 255
-0.201691 -0.024742 0.218531 255 255 255
0.093742 0.041713 -0.048671 255 255 255
-0.093415 -0.125436 -0.057672 255 255 255
-0.121494 0.071474 -0.046783 255 255 255
0.146525 0.028672 -0.045451 255 255 255
-0.114720 0.109514 0.014070 255 255 255
-0.164832 0.152265 0.160349 255 255 255
-0.157448 -0.047212 0.002147 255 255 255
-0.092191 -0.145881 -0.073417 255 255 255
0.199646 -0.158784 -0.041679 255 255 255
0.095410 0.108133 0.003352 255 255 255
0.008101 0.022241 -0.065956 255 255 255
0.231151 -0.130550 -0.263031 255 255 255
-0.120913 -0.106360 -0.057202 255 255 255
-0.012473 -0.024919 -0.057250 255 255 255
0.181063 -0.043560 -0.047703 255 255 255
-0.085220 0.152741 -0.059679 255 255 255
-0.032695 -0.028100 -0.045150 255 255 255
0.067253 -0.185175 -0.100693 255 255 255
-0.117461 -0.098938 -0.083553 255 255 255
-0.189762 0.052589 -0.010606 255 255 255
-0.197224 0.008270 -0.038230 255 255 255
0.095039 0.020275 -0.032807 255 255 255
0.234639 -0.002828 -0.030511 255 255 255
-0.167268 -0.120818 0.160903 255 255 255
-0.089384 0.135225 -0.026913 255 255 255
0.193702 0.077987 -0.013661 255 255 255
-0.021750 -0.060062 -0.049739 255 255 255
0.197340 0.181791 -0.030205 255 255 255
-0.110128 0.046323 0.011577 255 255 255
0.135222 0.189531 -0.052524 255 255 255
-0.150485 0.174786 0.132139 255 255 255
0.031270 -0.134667 -0.041070 255 255 255
-0.150171 -0.166876 0.181686 255 255 255
0.036072 -0.086122 -0.052477 255 255 255
0.059600 0.098502 -0.129238 255 255 255
0.141716 -0.141734 -0.051801 255 255 255
-0.236803 0.155661 0.254265 255 255 255
0.194345 0.021693 -0.051066 255 255 255
0.078247 -0.141386 -0.055452 255 255 255
0.021107 0.163161 -0.033260 255 255 255
0.016132 -0.081194 -0.032957 255 255 255
-0.187002 -0.075699 -0.004431 255 255 255
0.098845 0.010582 -0.237851 255 255 255
0.068257 0.153963 -0.041246 255 255 255
-0.234761 -0.076494 0.259762 255 255 255
-0.222750 0.077647 0.136683 255 255 255
-0.035327 -0.094322 -0.055152 255 255 255
-0.031491 -0.161237 -0.053449 255 255 255
0.028443 -0.036434 -0.055972 255 255 255
0.089928 -0.034892 -0.054646 255 255 255
-0.194973 -0.054012 0.196116 255 255 255
-0.146428 0.106736 -0.044649 255 255 255
-0.083790 -0.124523 -0.051158 255 255 255
-0.147397 -0.139711 -0.007166 255 255 255
0.078960 -0.142113 -0.218541 255 255 255
-0.033626 0.122999 -0.131349 255 255 255
0.106498 0.175993 -0.048178 255 255 255
-0.040056 0.026272 -0.039494 255 255 255
-0.234897 -0.084056 0.313201 255 255 255
0.109738 -0.067833 -0.045490 255 255 255
0.159746 -0.139538 -0.012615 255 255 255
-0.153000 -0.059807 -0.067705 255 255 255
-0.183434 0.009440 -0.057669 255 255 255
-0.134494 -0.061343 -0.064523 255 255 255
-0.185103 -0.061755 0.029922 255 255 255
-0.063366 0.151823 -0.056802 255 255 255
0.163086 0.079689 -0.032166 255 255 255
-0.242227 0.075362 0.300435 255 255 255
-0.167052 0.099865 -0.032186 255 255 255
-0.194349 0.057473 0.260709 255 255 255
0.050085 0.122753 -0.042730 255 255 255
-0.205171 0.047303 0.299230 255 255 255
0.179887 0.011783 -0.006733 255 255 255
-0.213542 -0.034373 0.291250 255 255 255
0.167579 0.152492 -0.037810 255 255 255
-0.117592 0.104758 -0.035633 255 255 255
-0.182295 0.019813 0.162154 255 255 255
0.148205 0.163429 -0.053954 255 255 255
0.206978 -0.081658 -0.033752 255 255 255
-0.182363 0.073212 0.149160 255 255 255
0.122633 0.051288 -0.040093 255 255 255
0.178970 -0.094644 -0.037616 255 255 255
0.143053 0.011148 -0.180359 255 255 255
0.220983 0.065220 -0.032148 255 255 255
-0.189580 -0.110681 0.239144 255 255 255
0.048889 0.070519 -0.049630 255 255 255
0.117428 -0.049341 -0.211789 255 255 255
0.194589 0.142957 -0.048808 255 255 255
0.052854 -0.181700 -0.036466 255 255 255
0.075411 0.180737 -0.051483 255 255 255
-0.120855 -0.065306 0.002820 255 255 255
-0.035133 0.065812 -0.187922 255 255 255
-0.198478 0.179030 0.276264 255 255 255
-0.192875 -0.042871 -0.019051 255 255 255
0.195159 0.064085 -0.040560 255 255 255
-0.173601 -0.050497 -0.038440 255 255 255
-0.167954 -0.151206 -0.024894 255 255 255
0.045703 0.099037 -0.038113 255 255 255
0.042594 -0.100584 -0.046301 255 255 255
0.010608 -0.198989 -0.081207 255 255 255
0.065839 -0.016399 -0.196536 255 255 255
0.053809 -0.118399 -0.042909 255 255 255
0.228512 -0.143277 -0.045710 255 255 255
0.225515 -0.004335 -0.050689 255 255 255
-0.026677 0.157572 -0.043253 255 255 255
-0.214921 0.116612 0.279800 255 255 255
-0.227236 0.076319 0.272718 255 255 255
0.024813 0.195005 -0.061387 255 255 255
-0.096226 0.211663 -0.106228 255 255 255
-0.118589 0.131855 -0.034862 255 255 255
-0.067002 0.234749 -0.072773 255 255 255
-0.165817 -0.140363 0.118636 255 255 255
-0.187550 0.028546 0.121293 255 255 255
-0.047167 -0.169480 -0.046326 255 255 255
0.245294 -0.018233 -0.036142 255 255 255
-0.079563 0.128862 -0.054114 255 255 255
0.101805 -0.170491 -0.063439 255 255 255
-0.162767 0.131254 -0.011439 255 255 255
-0.111599 -0.097858 -0.049953 255 255 255
-0.055733 -0.004103 -0.060618 255 255 255
0.104947 -0.163534 -0.032907 255 255 255
-0.011096 0.097311 -0.044790 255 255 255
-0.110054 0.083796 -0.090940 255 255 255
0.088458 0.080317 -0.035628 255 255 255
-0.191983 0.098614 0.153638 255 255 255
0.047444 -0.101860 -0.064880 255 255 255
0.099789 -0.141337 -0.033408 255 255 255
-0.031374 -0.056378 -0.058570 255 255 255
-0.129909 0.176171 0.190021 255 255 255
0.097509 0.154121 -0.098225 255 255 255
-0.007573 0.182881 -0.064971 255 255 255
-0.182623 -0.017039 -0.074110 255 255 255
-0.118846 0.145239 -0.021199 255 255 255
-0.194819 -0.074473 0.161474 255 255 255
-0.214614 -0.096185 0.280194 255 255 255
-0.185918 0.003156 0.094037 255 255 255
-0.148611 0.101724 -0.033348 255 255 255
0.007875 -0.148274 -0.056393 255 255 255
-0.070956 0.168840 -0.048562 255 255 255
-0.168231 0.151324 0.044729 255 255 255
0.032771 -0.113837 -0.045846 255 255 255
-0.046199 0.149301 -0.074579 255 255 255
-0.169337 0.003435 -0.049202 255 255 255
0.221249 -0.130880 -0.021334 255 255 255
0.041317 -0.055336 -0.092286 255 255 255
-0.183831 0.122961 0.218160 255 255 255
0.052045 0.117870 -0.048958 255 255 255
-0.004614 -0.172910 -0.025764 255 255 255
0.061683 0.010102 0.001568 255 255 255
-0.154805 -0.200935 0.185108 255 255 255
-0.203569 0.058491 0.198811 255 255 255
0.147439 0.033184 -0.044783 255 255 255
-0.089975 -0.096952 -0.062930 255 255 255
0.123140 -0.103318 -0.042442 255 255 255
-0.160013 0.103474 0.053171 255 255 255
0.059315 0.019558 -0.054273 255 255 255
0.131631 0.148868 -0.035959 255 255 255
0.175398 -0.134964 -0.056656 255 255 255
0.029303 0.178565 -0.052602 255 255 255
-0.196006 0.129756 0.323155 255 255 255
-0.117081 0.068920 -0.262256 255 255 255
-0.150076 0.091826 0.095401 255 255 255
-0.216440 0.127285 0.308250 255 255 255
-0.021031 0.125659 -0.051661 255 255 255
-0.191766 0.019740 -0.081853 255 255 255
-0.164475 -0.037372 -0.078776 255 255 255
0.141298 0.070318 -0.053791 255 255 255
-0.116588 -0.092528 0.014667 255 255 255
-0.010193 -0.025181 -0.063058 255 255 255
-0.184325 0.079817 -0.057317 255 255 255
-0.167717 -0.049259 -0.052795 255 255 255
0.064194 -0.104685 -0.046372 255 255 255
-0.031336 0.109407 -0.072088 255 255 255
0.117836 -0.055849 -0.181475 255 255 255
0.315438 -0.012384 -0.048980 255 255 255
0.036532 -0.096013 -0.059730 255 255 255
-0.050292 0.155159 -0.024458 255 255 255
0.001227 0.008262 -0.072159 255 255 255
-0.241230 -0.030383 0.314535 255 255 255
-0.088444 0.127933 -0.055926 255 255 255
-0.040933 0.161518 -0.042314 255 255 255
0.019969 0.136935 -0.043113 255 255 255
0.170257 -0.020594 -0.031738 255 255 255
-0.167207 0.058696 0.014345 255 255 255
-0.045965 -0.009410 -0.066176 255 255 255
0.147080 -0.053540 0.007326 255 255 255
0.163196 0.087022 -0.205406 255 255 255
0.018285 0.094871 -0.111629 255 255 255
-0.127848 -0.097719 -0.060652 255 255 255
0.188248 -0.061485 -0.035606 255 255 255
-0.205086 -0.061999 0.179945 255 255 255
0.059240 -0.166249 -0.048401 255 255 255
-0.044141 -0.027683 -0.234498 255 255 255
0.102668 0.128702 -0.021102 255 255 255
0.169002 -0.021190 -0.034494 255 255 255
-0.184437 0.099681 0.165700 255 255 255
0.209390 -0.122071 -0.057834 255 255 255
0.135997 -0.121402 -0.017248 255 255 255
0.155614 0.123494 -0.029977 255 255 255
-0.118880 0.016060 -0.058409 255 255 255
-0.002460 -0.173781 -0.061022 255 255 255
0.131303 -0.176068 -0.026548 255 255 255
0.134489 0.136194 -0.057195 255 255 255
-0.195590 0.080114 0.223252 255 255 255
-0.196847 -0.097878 0.171232 255 255 255
-0.150866 0.165235 0.059374 255 255 255
-0.200838 -0.006083 0.199732 255 255 255
-0.077908 0.145075 -0.044497 255 255 255
0.008986 -0.112604 -0.053925 255 255 255
0.113575 0.154106 -0.035191 255 255 255
-0.192855 -0.113323 -0.039873 255 255 255
-0.013705 -0.148787 -0.055070 255 255 255
-0.186754 0.121306 0.184282 255 255 255
-0.120968 -0.155523 -0.026984 255 255 255
0.070235 0.156485 -0.051599 255 255 255
-0.121552 0.165291 0.059000 255 255 255
-0.135594 0.157481 0.165860 255 255 255
0.086079 -0.051314 -0.032514 255 255 255
0.144122 -0.099420 -0.079495 255 255 255
-0.218482 -0.062209 0.169936 255 255 255
-0.195352 0.143608 0.290847 255 255 255
-0.075584 -0.109792 -0.028006 255 255 255
-0.102206 -0.106614 -0.052221 255 255 255
0.088787 0.087298 -0.177114 255 255 255
-0.047682 0.127862 -0.028444 255 255 255
0.154992 0.170581 -0.054664 255 255 255
0.175938 0.084884 -0.052369 255 255 255
-0.151394 0.013197 -0.055918 255 255 255
-0.207063 0.049012 0.188056 255 255 255
0.109794 0.134951 -0.108945 255 255 255
0.089341 0.096954 -0.046378 255 255 255
0.071742 -0.042277 -0.057424 255 255 255
0.205015 0.041060 -0.017395 255 255 255
-0.012633 -0.139327 -0.015229 255 255 255
0.147430 0.180556 -0.055173 255 255 255
-0.151716 -0.078660 0.035671 255 255 255
-0.197635 0.078825 0.270407 255 255 255
-0.037105 0.108765 -0.065795 255 255 255
-0.179788 -0.083036 0.196442 255 255 255
-0.016129 -0.177281 -0.086031 255 255 255
-0.021959 0.022270 -0.048932 255 255 255
0.015017 -0.049369 -0.067957 255 255 255
-0.027420 -0.085591 -0.043980 255 255 255
-0.203035 -0.101739 0.200277 255 255 255
0.146796 0.165008 -0.042614 255 255 255
-0.170362 -0.108119 0.227973 255 255 255
0.168506 0.170899 -0.081707 255 255 255
-0.182189 0.079148 0.169579 255 255 255
-0.135882 0.180256 0.116290 255 255 255
0.057369 0.129163 -0.048363 255 255 255
0.188037 0.109398 -0.034604 255 255 255
-0.114173 0.148234 -0.090236 255 255 255
-0.192165 -0.044948 0.096772 255 255 255
0.011714 0.025227 -0.204392 255 255 255
0.145660 -0.032072 -0.056340 255 255 255
-0.226784 -0.120307 0.273204 255 255 255
0.104620 -0.040056 -0.056758 255 255 255
-0.205928 0.104857 0.283766 255 255 255
-0.190095 0.025996 0.188805 255 255 255
-0.173670 0.150606 0.264242 255 255 255
-0.052284 0.112490 -0.063303 255 255 255
0.005426 0.065932 -0.062671 255 255 255
-0.183871 -0.177034 0.274064 255 255 255
0.198304 0.147858 -0.016680 255 255 255
0.207479 -0.055392 -0.018981 255 255 255
0.204181 -0.140335 -0.028005 255 255 255
-0.021544 -0.070579 -0.131659 255 255 255
0.096836 0.041542 -0.058500 255 255 255
0.084884 0.017511 -0.141524 255 255 255
0.191247 0.010385 -0.039230 255 255 255
0.176058 -0.031644 -0.056154 255 255 255
-0.126095 0.157958 -0.083553 255 255 255
-0.202920 0.143483 0.254530 255 255 255
-0.203606 0.136104 0.287142 255 255 255
-0.176229 -0.081181 0.149148 255 255 255
0.255365 -0.045058 -0.056393 255 255 255
0.147985 0.180725 -0.044568 255 255 255
0.113022 -0.131316 -0.034342 255 255 255
0.054822 -0.138522 -0.041833 255 255 255
-0.173079 -0.090877 0.192085 255 255 255
-0.206927 0.004701 0.283004 255 255 255
-0.021921 0.054277 -0.160981 255 255 255
0.192383 -0.176360 -0.040266 255 255 255
-0.077540 -0.131469 -0.063340 255 255 255
0.116603 -0.141369 -0.053128 255 255 255
-0.158418 -0.172396 0.252315 255 255 255
-0.187443 0.055432 0.232270 255 255 255
-0.161661 0.059714 -0.068975 255 255 255
0.063284 0.077542 -0.056776 255 255 255
-0.045745 -0.138569 -0.067373 255 255 255
-0.089913 0.037607 -0.250028 255 255 255
-0.042052 -0.097546 0.002475 255 255 255
0.094260 0.217002 -0.034902 255 255 255
0.017701 -0.139121 -0.060595 255 255 255
-0.166974 0.134013 0.124656 255 255 255
0.078478 0.148833 -0.026092 255 255 255
0.167407 -0.026440 -0.181727 255 255 255
-0.084506 0.159632 -0.057602 255 255 255
-0.022170 -0.105510 -0.049131 255 255 255
-0.060360 0.087057 -0.061873 255 255 255
0.255626 -0.044255 -0.054671 255 255 255
-0.174732 0.177410 0.266195 255 255 255
-0.039335 -0.170545 -0.086810 255 255 255
-0.111457 0.026437 -0.046212 255 255 255
-0.158868 -0.158543 0.090582 255 255 255
-0.236674 0.011217 0.257461 255 255 255
-0.204185 0.094685 0.181098 255 255 255
-0.131111 0.044240 -0.037157 255 255 255
0.213089 0.019032 -0.037109 255 255 255
0.120227 -0.141865 -0.031705 255 255 255
-0.159400 -0.074000 -0.028765 255 255 255
0.090549 0.162333 -0.054093 255 255 255
0.229678 -0.111778 -0.044031 255 255 255
-0.079983 -0.149197 -0.070913 255 255 255
0.167026 0.096705 -0.036788 255 255 255
-0.155527 0.119069 0.189234 255 255 255
-0.083466 -0.168009 -0.022943 255 255 255
0.013371 -0.061233 -0.060960 255 255 255
-0.176849 -0.173689 0.101757 255 255 255
0.157636 0.108505 -0.048029 255 255 255
0.222850 -0.014921 -0.016280 255 255 255
0.124953 0.093527 -0.195773 255 255 255
0.007643 0.068701 -0.182212 255 255 255
-0.204144 -0.029595 0.245255 255 255 255
0.173489 -0.097991 -0.063766 255 255 255
0.082166 0.119355 -0.252674 255 255 255
-0.199175 0.055200 0.233219 255 255 255
-0.136069 -0.117296 -0.053047 255 255 255
-0.126294 -0.102788 -0.078425 255 255 255
0.126150 -0.097317 -0.044082 255 255 255
0.118599 0.131064 -0.029315 255 255 255
-0.002218 0.189678 -0.044340 255 255 255
0.128077 0.095268 -0.048771 255 255 255
-0.041560 -0.055405 -0.171238 255 255 255
0.121265 0.114784 -0.019598 255 255 255
0.144958 -0.075835 -0.041972 255 255 255
-0.016436 0.181085 -0.033376 255 255 255
-0.159616 0.171195 0.095778 255 255 255
-0.112777 0.101244 -0.034035 255 255 255
0.252434 -0.121130 -0.041832 255 255 255
0.106960 0.033743 -0.050430 255 255 255
-0.187625 -0.133480 0.011890 255 255 255
0.193192 -0.207988 -0.047419 255 255 255
-0.150348 0.110728 -0.058091 255 255 255
0.204001 -0.093898 -0.020829 255 255 255
0.125440 0.150110 -0.047262 255 255 255
-0.151242 -0.131675 0.015659 255 255 255
-0.114933 0.180232 -0.062738 255 255 255
-0.186315 -0.162473 0.188040 255 255 255
0.117682 0.010607 -0.049040 255 255 255
0.056144 -0.171364 -0.025408 255 255 255
0.025091 0.173938 -0.039682 255 255 255
0.141599 -0.054229 -0.014820 255 255 255
0.214608 0.038133 -0.038435 255 255 255
-0.179225 -0.049163 0.022566 255 255 255
0.227958 0.259382 -0.027166 255 255 255
-0.234136 -0.124213 0.307185 255 255 255
-0.161931 0.147917 -0.048812 255 255 255
-0.196339 0.075005 0.227917 255 255 255
-0.127422 0.139091 0.073577 255 255 255
-0.195695 -0.063287 0.211657 255 255 255
0.083920 -0.081167 -0.041684 255 255 255
0.036075 -0.119278 -0.031698 255 255 255
-0.147190 -0.154959 0.062897 255 255 255
0.088976 0.152322 -0.018724 255 255 255
0.001801 -0.124784 -0.057250 255 255 255
-0.160880 -0.076421 0.204120 255 255 255
0.134079 -0.143983 -0.067234 255 255 255
-0.150267 0.130135 -0.034079 255 255 255
-0.154962 0.066029 0.005590 255 255 255
0.056414 0.062885 -0.022418 255 255 255
0.093434 -0.040747 -0.047104 255 255 255
-0.129109 -0.152376 -0.029015 255 255 255
0.043822 0.198358 -0.065371 255 255 255
-0.079323 -0.047032 0.026058 255 255 255
-0.055639 0.071976 -0.053519 255 255 255
0.061499 0.151989 -0.023798 255 255 255
-0.218319 0.014315 0.166692 255 255 255
0.253501 0.044792 -0.051653 255 255 255
-0.009198 -0.157900 -0.055149 255 255 255
-0.169128 -0.156758 0.284035 255 255 255
-0.133786 0.199433 -0.068177 255 255 255
0.144224 -0.190979 -0.042115 255 255 255
-0.175736 0.149065 0.239121 255 255 255
0.071639 0.164809 -0.036324 255 255 255
-0.059160 0.038095 -0.053901 255 255 255
-0.094480 -0.174137 -0.004469 255 255 255
0.106390 -0.101761 -0.062650 255 255 255
-0.206510 0.133767 0.244524 255 255 255
-0.152626 0.179597 0.273253 255 255 255
0.110138 -0.111702 -0.054045 255 255 255
-0.211359 -0.057132 0.241688 255 255 255
-0.114058 0.065988 -0.229234 255 255 255
-0.157645 0.122388 -0.013798 255 255 255
-0.055264 -0.132374 -0.057847 255 255 255
-0.179904 0.023321 -0.055903 255 255 255
0.224150 0.093361 -0.090511 255 255 255
-0.189048 -0.009869 -0.061182 255 255 255
0.138881 0.088566 -0.034919 255 255 255
0.179358 -0.004242 -0.033417 255 255 255
-0.163999 -0.043661 0.108977 255 255 255
-0.233957 0.054185 0.328824 255 255 255
-0.023613 0.065894 -0.129985 255 255 255
0.225346 0.133258 -0.001608 255 255 255
0.147603 0.076817 -0.056665 255 255 255
-0.023173 0.166370 -0.040376 255 255 255
0.074548 -0.152683 -0.038990 255 255 255
-0.025664 -0.052916 -0.042953 255 255 255
-0.215061 -0.017018 0.204527 255 255 255
0.043760 -0.202360 -0.081520 255 255 255
0.180083 0.148876 -0.070511 255 255 255
0.120756 0.158872 -0.010133 255 255 255
0.204218 -0.136978 -0.007242 255 255 255
0.100338 0.075499 -0.045436 255 255 255
-0.099319 -0.036737 -0.066058 255 255 255
-0.160726 -0.161679 -0.078992 255 255 255
-0.074687 0.031068 -0.060406 255 255 255
0.092989 -0.065940 -0.244088 255 255 255
0.186874 0.083074 -0.047652 255 255 255
0.018284 -0.093592 -0.042162 255 255 255
-0.159912 0.164080 -0.078693 255 255 255
-0.192491 0.026302 0.153959 255 255 255
0.035920 -0.057669 -0.065625 255 255 255
-0.036127 -0.158682 -0.033859 255 255 255
0.117070 -0.067833 -0.056734 255 255 255
0.001204 -0.035894 -0.063600 255 255 255
-0.054963 0.099836 -0.207206 255 255 255
0.240009 0.141526 -0.073432 255 255 255
-0.205830 -0.074692 0.209049 255 255 255
-0.145489 0.169745 0.128801 255 255 255
0.172867 0.114368 -0.040744 255 255 255
-0.176107 0.196470 -0.067040 255 255 255
0.061581 0.111349 -0.047779 255 255 255
0.009429 0.197605 -0.066208 255 255 255
-0.031093 -0.084815 -0.069509 255 255 255
-0.126950 -0.058822 -0.072740 255 255 255
-0.033916 0.121064 -0.080712 255 255 255
-0.218050 0.155091 0.271841 255 255 255
-0.033726 -0.145120 -0.088986 255 255 255
-0.115203 0.161086 -0.050858 255 255 255
0.038346 -0.056808 -0.067444 255 255 255
-0.227390 -0.094494 0.300756 255 255 255
-0.159936 0.161787 0.075813 255 255 255
0.144396 -0.105942 -0.051937 255 255 255
-0.195423 -0.140641 0.227992 255 255 255
-0.183653 -0.083266 0.062534 255 255 255
-0.072953 -0.149828 -0.056178 255 255 255
-0.097764 -0.165570 -0.008570 255 255 255
0.014453 -0.121699 -0.256635 255 255 255
-0.217191 0.144542 0.241792 255 255 255
0.059460 0.195981 -0.092501 255 255 255
0.240204 -0.028643 -0.035116 255 255 255
-0.159537 0.083472 -0.056091 255 255 255
0.135520 0.177167 -0.082975 255 255 255
0.262768 -0.084837 -0.053345 255 255 255
0.216775 0.083771 -0.040147 255 255 255
0.123986 0.153485 -0.042174 255 255 255
0.016466 0.073454 -0.057032 255 255 255
-0.202070 -0.112465 -0.032921 255 255 255
0.192858 0.052732 -0.023186 255 255 255
-0.157558 0.184052 0.074527 255 255 255
-0.068699 0.078732 -0.215532 255 255 255
0.004041 -0.154392 -0.098982 255 255 255
-0.159939 0.128101 -0.080907 255 255 255
-0.041691 0.173064 -0.059403 255 255 255
0.062955 0.188519 -0.071007 255 255 255
-0.136640 0.137065 -0.066538 255 255 255
-0.061419 0.144921 -0.030158 255 255 255
-0.061926 0.051384 -0.071190 255 255 255
-0.154556 0.183972 0.260547 255 255 255
0.095744 -0.048337 -0.111304 255 255 255
-0.206089 0.117238 0.286520 255 255 255
0.052732 -0.111577 -0.047961 255 255 255
-0.087341 -0.046480 -0.066979 255 255 255
-0.088474 0.098124 -0.088585 255 255 255
0.240397 -0.160197 -0.046590 255 255 255
0.089452 -0.019662 -0.218008 255 255 255
-0.049911 0.052413 -0.052079 255 255 255
-0.038340 -0.030908 -0.143968 255 255 255
-0.182867 0.043952 0.220030 255 255 255
-0.100934 0.020470 -0.039802 255 255 255
-0.167327 -0.127982 0.166266 255 255 255
-0.184142 -0.097283 -0.049412 255 255 255
-0.048414 0.183405 -0.067881 255 255 255
-0.151738 0.124104 -0.023854 255 255 255
-0.078567 -0.141745 -0.065322 255 255 255
-0.166466 -0.113570 -0.019182 255 255 255
-0.188216 0.019275 0.109602 255 255 255
0.068607 -0.138253 -0.052172 255 255 255
-0.038388 0.167295 -0.239961 255 255 255
-0.115619 0.060427 -0.037636 255 255 255
0.042312 -0.149864 -0.144288 255 255 255
0.223785 -0.145157 -0.026188 255 255 255
0.137042 0.103091 -0.045385 255 255 255
-0.079723 0.064293 -0.057312 255 255 255
-0.057171 0.021495 -0.065105 255 255 255
-0.198929 -0.124423 0.224270 255 255 255
0.006454 -0.119115 -0.172687 255 255 255
-0.095274 0.056020 -0.059224 255 255 255
0.181164 -0.080979 -0.058635 255 255 255
-0.042322 -0.056597 -0.055506 255 255 255
-0.129687 0.059223 -0.090343 255 255 255
0.181719 -0.078028 -0.040764 255 255 255
0.110684 0.114282 -0.037532 255 255 255
-0.110492 0.072801 -0.065279 255 255 255
-0.177782 -0.115064 0.264639 255 255 255
0.259487 -0.100220 -0.031071 255 255 255
0.049355 0.078878 -0.060134 255 255 255
-0.023099 -0.125758 -0.062556 255 255 255
0.010881 -0.064315 -0.166362 255 255 255
-0.101941 -0.093119 -0.061208 255 255 255
-0.188104 -0.129974 0.161415 255 255 255
-0.138664 -0.162911 0.240373 255 255 255
0.127592 0.156286 -0.040146 255 255 255
0.096764 0.121117 -0.060649 255 255 255
0.226694 0.028417 -0.026313 255 255 255
0.003791 -0.131939 -0.064793 255 255 255
-0.129695 0.140977 -0.062511 255 255 255
0.128638 0.017225 -0.040563 255 255 255
-0.213019 0.115792 0.258542 255 255 255
-0.215204 -0.053878 0.250175 255 255 255
0.020428 -0.178636 -0.058997 255 255 255
0.090033 0.136855 -0.044032 255 255 255
0.115882 -0.145011 -0.054394 255 255 255
-0.170944 -0.057908 0.015412 255 255 255
0.059105 -0.125944 -0.066385 255 255 255
0.220470 0.076187 -0.006590 255 255 255
-0.106537 -0.089695 -0.066228 255 255 255
-0.040869 0.053203 -0.064615 255 255 255
-0.160557 -0.145059 0.142685 255 255 255
0.196124 0.016049 -0.041336 255 255 255
-0.198980 -0.024920 0.261942 255 255 255
0.159120 0.118652 -0.050519 255 255 255
0.166619 -0.014257 -0.059994 255 255 255
-0.120679 0.141364 -0.119285 255 255 255
-0.005003 -0.098751 -0.066963 255 255 255
-0.010939 0.161137 -0.035093 255 255 255
0.181151 0.077461 0.008245 255 255 255
0.092128 0.032211 -0.131696 255 255 255
-0.051482 -0.014061 -0.071880 255 255 255
0.195280 -0.104392 0.002000 255 255 255
-0.233156 0.019733 0.288325 255 255 255
-0.183147 -0.122885 0.172388 255 255 255
0.008931 0.079435 -0.219871 255 255 255
-0.214493 0.030615 0.272955 255 255 255
-0.058379 -0.053165 -0.053636 255 255 255
-0.116063 -0.047708 -0.068621 255 255 255
0.240924 -0.163525 -0.016899 255 255 255
0.127843 -0.121345 -0.015091 255 255 255
0.185755 -0.159251 -0.070544 255 255 255
-0.079627 0.202250 -0.101707 255 255 255
0.139357 0.015108 -0.054460 255 255 255
0.196054 -0.003708 -0.042692 255 255 255
-0.066537 -0.140093 -0.116540 255 255 255
0.124298 0.037137 -0.046738 255 255 255
-0.111706 -0.129228 -0.064960 255 255 255
-0.098774 -0.057722 -0.029854 255 255 255
-0.003201 -0.041703 -0.038368 255 255 255
0.000581 0.104705 -0.169753 255 255 255
-0.199303 -0.124117 0.236158 255 255 255
0.078275 -0.157322 -0.056920 255 255 255
0.057847 0.095577 -0.058429 255 255 255
0.141294 0.023367 -0.043528 255 255 255
0.020687 -0.157564 -0.070871 255 255 255
-0.153936 0.125005 0.227434 255 255 255
0.194358 0.137119 -0.034428 255 255 255
0.088984 0.186995 -0.016536 255 255 255
-0.177328 0.126595 -0.011115 255 255 255
-0.058578 -0.177434 -0.059088 255 255 255
0.152598 -0.104658 -0.035798 255 255 255
0.210340 -0.062779 -0.025749 255 255 255
0.024302 -0.140869 -0.061199 255 255 255
0.099193 -0.076583 -0.083334 255 255 255
-0.059634 -0.064133 -0.055322 255 255 255
-0.124803 0.174430 -0.097516 255 255 255
0.007477 0.192890 -0.033815 255 255 255
0.127265 0.177325 -0.072952 255 255 255
-0.209930 -0.038254 0.147579 255 255 255
-0.192954 -0.152918 0.205655 255 255 255
0.112979 -0.063460 -0.167786 255 255 255
0.122736 -0.152078 -0.046366 255 255 255
-0.016448 -0.071062 -0.071618 255 255 255
0.249973 0.054687 -0.030634 255 255 255
-0.017448 -0.055627 -0.142422 255 255 255
0.108346 -0.083829 -0.027833 255 255 255
0.058225 0.123530 -0.037870 255 255 255
-0.040647 -0.193431 -0.048892 255 255 255
-0.147621 0.053012 -0.070287 255 255 255
0.244783 -0.098700 -0.086386 255 255 255
-0.093059 -0.087377 -0.096948 255 255 255
-0.168400 -0.014273 -0.053170 255 255 255
-0.075458 0.179051 -0.053300 255 255 255
0.010889 0.023470 -0.039633 255 255 255
-0.187701 -0.026249 0.150784 255 255 255
-0.077769 -0.104441 -0.011042 255 255 255
-0.111970 -0.034197 -0.048548 255 255 255
-0.179197 -0.093040 0.187343 255 255 255
0.012258 -0.144911 -0.074212 255 255 255
0.186609 0.170246 -0.030651 255 255 255
-0.202421 0.114197 0.155315 255 255 255
0.043805 0.060612 -0.184721 255 255 255
-0.100996 -0.163005 -0.098041 255 255 255
-0.169504 -0.084049 -0.010902 255 255 255
0.133141 -0.174537 -0.053130 255 255 255
-0.195480 -0.009373 -0.052688 255 255 255
-0.078095 0.002007 -0.033555 255 255 255
0.127852 -0.132692 -0.060265 255 255 255
-0.210502 -0.040444 0.230835 255 255 255
0.184087 -0.037624 -0.039214 255 255 255
-0.041527 0.146035 -0.044152 255 255 255
0.212549 -0.179179 -0.037268 255 255 255
-0.109107 0.073848 -0.030786 255 255 255
0.031289 -0.086230 -0.199344 255 255 255
-0.039733 0.075904 -0.045126 255 255 255
-0.228100 -0.018906 0.240248 255 255 255
-0.205818 -0.061313 0.159901 255 255 255
-0.051285 -0.064236 -0.056582 255 255 255
-0.128492 0.138092 -0.064537 255 255 255
-0.210073 0.007479 0.129233 255 255 255
-0.008554 -0.040330 -0.065959 255 255 255
-0.076281 0.169902 -0.030711 255 255 255
-0.159930 0.091597 -0.023843 255 255 255
-0.183733 0.163174 0.110240 255 255 255
-0.134818 -0.057024 -0.048411 255 255 255
-0.028627 0.024213 -0.043311 255 255 255
0.208566 -0.186284 -0.031453 255 255 255
-0.172319 -0.014564 -0.000824 255 255 255
-0.065830 -0.100461 -0.071709 255 255 255
-0.007431 -0.187527 -0.066145 255 255 255
0.223551 0.199784 -0.044510 255 255 255
0.055739 0.120069 -0.046171 255 255 255
-0.206956 0.016343 0.264416 255 255 255
-0.058711 -0.067212 -0.054247 255 255 255
0.067766 0.185473 -0.039227 255 255 255
-0.002995 -0.090083 -0.059411 255 255 255
-0.170767 0.059829 -0.058844 255 255 255
0.162285 -0.031076 -0.056148 255 255 255
-0.004606 -0.168780 -0.070308 255 255 255
-0.166113 0.147203 0.243043 255 255 255
0.230915 0.080394 -0.033629 255 255 255
0.234850 0.087974 -0.050366 255 255 255
-0.047485 -0.188810 -0.071942 255 255 255
0.169461 -0.044614 -0.032452 255 255 255
-0.195196 0.048641 0.162569 255 255 255
0.057757 0.035121 -0.043921 255 255 255
0.213274 0.096861 -0.057094 255 255 255
0.060834 -0.003850 -0.107756 255 255 255
-0.205385 -0.085200 0.237406 255 255 255
0.106294 -0.096000 -0.027355 255 255 255
-0.186921 0.154059 0.265213 255 255 255
0.066714 -0.164929 -0.108672 255 255 255
0.027675 0.082528 -0.040177 255 255 255
0.022187 0.130967 -0.082557 255 255 255
-0.187854 -0.138005 0.212574 255 255 255
0.148118 0.084262 -0.039838 255 255 255
-0.061514 0.126677 -0.164851 255 255 255
0.117741 0.164348 -0.090536 255 255 255
-0.128688 0.127826 -0.058635 255 255 255
-0.015569 -0.147002 -0.045052 255 255 255
-0.189530 -0.022164 0.178032 255 255 255
0.004793 0.168147 -0.039343 255 255 255
0.040744 0.010126 -0.115956 255 255 255
-0.158013 0.074774 -0.000228 255 255 255
-0.136751 0.072210 -0.029185 255 255 255
-0.006725 0.082297 -0.210666 255 255 255
-0.182089 -0.138770 0.235748 255 255 255
-0.120922 -0.118895 0.058732 255 255 255
-0.128234 0.113855 -0.012559 255 255 255
0.147566 0.099934 -0.032180 255 255 255
0.102336 0.045012 -0.050119 255 255 255
-0.082160 -0.147267 -0.117230 255 255 255
-0.214983 -0.086019 0.232159 255 255 255
-0.176784 0.207004 0.232795 255 255 255
-0.206737 0.040656 0.223131 255 255 255
-0.218177 0.076305 0.215823 255 255 255
0.107133 0.178147 -0.051425 255 255 255
-0.085520 0.058290 -0.058902 255 255 255
0.232375 -0.081175 -0.037914 255 255 255
-0.145576 0.165219 0.252286 255 255 255
-0.172142 0.162447 0.239566 255 255 255
-0.182996 0.225083 0.119710 255 255 255
0.136742 0.137225 -0.028774 255 255 255
-0.188906 0.156450 0.259051 255 255 255
-0.153930 -0.064095 -0.013302 255 255 255
0.130455 0.121341 -0.003687 255 255 255
0.017799 0.181330 -0.016538 255 255 255
0.037818 -0.078186 -0.155235 255 255 255
0.142045 0.146827 -0.037388 255 255 255
0.118977 -0.071068 -0.030663 255 255 255
-0.175000 -0.080962 -0.063230 255 255 255
-0.045844 0.027159 -0.158018 255 255 255
-0.154526 -0.083894 0.039919 255 255 255
0.101387 -0.182941 -0.053982 255 255 255
0.005462 0.108210 -0.172864 255 255 255
-0.161174 0.175353 0.228292 255 255 255
-0.154292 -0.100882 -0.075506 255 255 255
-0.047834 0.019233 -0.064933 255 255 255
0.154581 -0.122171 -0.045766 255 255 255
0.222136 -0.011163 -0.042588 255 255 255
-0.021969 0.173362 -0.050787 255 255 255
-0.172123 -0.060844 0.011399 255 255 255
0.002967 0.155508 -0.054360 255 255 255
-0.096140 0.056669 -0.079522 255 255 255
0.118204 0.098304 -0.037734 255 255 255
-0.066275 0.158842 -0.046005 255 255 255
0.053739 0.024517 -0.036221 255 255 255
-0.233593 0.120635 0.253523 255 255 255
-0.181927 -0.099798 0.180782 255 255 255
0.072540 0.150295 -0.045836 255 255 255
0.098183 0.077223 0.016109 255 255 255
-0.151036 0.168797 0.138511 255 255 255
-0.085015 -0.125902 -0.066291 255 255 255
0.010741 -0.066601 -0.171634 255 255 255
0.051291 0.160200 -0.037557 255 255 255
-0.079723 0.209539 -0.091702 255 255 255
-0.046060 -0.164741 -0.087648 255 255 255
-0.082923 0.130139 -0.012648 255 255 255
0.084252 0.175221 -0.048389 255 255 255
0.122050 0.088333 -0.038025 255 255 255
0.013924 0.125723 -0.101772 255 255 255
-0.127742 -0.130274 -0.056790 255 255 255
0.254029 0.058729 -0.034970 255 255 255
-0.210082 0.154267 0.262754 255 255 255
-0.210760 -0.024223 0.193642 255 255 255
-0.062158 0.110054 -0.081039 255 255 255
-0.050832 -0.013124 -0.178361 255 255 255
0.138701 0.107383 -0.044815 255 255 255
0.056114 0.025738 -0.063520 255 255 255
-0.130082 0.037591 -0.055181 255 255 255
0.140773 -0.092870 -0.097360 255 255 255
0.298464 0.015334 -0.046723 255 255 255
0.079199 -0.176802 -0.046977 255 255 255
0.029876 0.061331 -0.067400 255 255 255
0.140370 0.123899 -0.044322 255 255 255
0.102602 -0.114455 -0.037315 255 255 255
0.163399 0.097854 -0.026728 255 255 255
-0.143418 -0.137109 -0.053988 255 255 255
-0.174248 0.115954 0.133069 255 255 255
0.128356 0.198493 -0.048477 255 255 255
-0.170187 0.139006 0.278591 255 255 255
-0.083668 0.145457 -0.017577 255 255 255
0.105866 0.063242 -0.161405 255 255 255
-0.074501 0.141320 -0.051910 255 255 255
-0.002745 0.212758 -0.049303 255 255 255
-0.173521 0.053345 0.207858 255 255 255
0.125255 0.019405 -0.047567 255 255 255
0.173963 0.169084 -0.001088 255 255 255
0.113430 -0.017815 -0.308995 255 255 255
-0.158189 0.007211 0.071868 255 255 255
-0.047175 -0.026817 -0.061164 255 255 255
0.194747 -0.099913 -0.020610 255 255 255
-0.241395 -0.133864 0.305392 255 255 255
0.112246 0.039014 -0.029649 255 255 255
-0.229627 -0.141838 0.263958 255 255 255
0.127806 -0.130525 -0.057636 255 255 255
0.015970 -0.140405 -0.048602 255 255 255
-0.148242 -0.007468 -0.067861 255 255 255
-0.084063 0.107741 -0.075362 255 255 255
-0.034981 0.193075 -0.047963 255 255 255
-0.069114 -0.161635 -0.032806 255 255 255
-0.187669 0.212373 0.254123 255 255 255
0.037377 0.201603 -0.049534 255 255 255
-0.210316 0.052968 0.177172 255 255 255
0.152357 0.001561 -0.044475 255 255 255
-0.027109 0.162642 -0.052384 255 255 255
0.033720 0.120000 -0.025963 255 255 255
0.150150 -0.005059 -0.028423 255 255 255
-0.118285 0.181453 -0.070391 255 255 255
0.190356 -0.034646 -0.048083 255 255 255
0.149242 0.176043 -0.072678 255 255 255
-0.207010 -0.001263 0.274192 255 255 255
0.086021 -0.045850 -0.186855 255 255 255
0.201949 -0.135403 -0.021023 255 255 255
-0.045727 0.172634 -0.009367 255 255 255
-0.196028 0.171778 0.087942 255 255 255
-0.110285 -0.115403 -0.120809 255 255 255
0.069954 0.068201 -0.199469 255 255 255
0.043631 0.058120 -0.148234 255 255 255
-0.159812 0.135637 0.158560 255 255 255
0.221591 -0.041552 -0.036999 255 255 255
-0.173440 0.157511 0.284916 255 255 255
0.234000 -0.070229 -0.079805 255 255 255
0.124399 0.163438 -0.056110 255 255 255
0.012348 0.164008 -0.062228 255 255 255
0.135192 0.118105 -0.039391 255 255 255
0.082386 -0.153841 -0.032732 255 255 255
0.084109 0.164490 -0.050362 255 255 255
-0.207702 0.076573 0.244315 255 255 255
-0.176479 0.108538 0.014644 255 255 255
-0.170951 0.063821 -0.010679 255 255 255
0.144683 0.009257 -0.032366 255 255 255
-0.235485 0.019068 0.269831 255 255 255
-0.212747 -0.177010 0.308711 255 255 255
0.013335 -0.166357 -0.187589 255 255 255
-0.190797 -0.024006 0.100233 255 255 255
0.223478 0.038610 -0.002707 255 255 255
0.064421 -0.149930 -0.102230 255 255 255
-0.061112 -0.164294 -0.099933 255 255 255
-0.193073 0.033990 -0.039617 255 255 255
-0.049152 0.171193 -0.025245 255 255 255
0.106489 0.108958 -0.039894 255 255 255
-0.229806 -0.007302 0.312567 255 255 255
0.009634 -0.060869 -0.049217 255 255 255
-0.064060 -0.028474 -0.072582 255 255 255
0.028735 0.070924 -0.052164 255 255 255
0.221168 0.041354 -0.236177 255 255 255
-0.179280 0.221576 0.276801 255 255 255
0.074619 0.050264 -0.181068 255 255 255
0.108927 -0.195205 -0.112120 255 255 255
-0.189183 0.153236 -0.056736 255 255 255
-0.178877 0.035800 0.042537 255 255 255
0.091162 0.059811 -0.168152 255 255 255
-0.187440 -0.163563 0.270693 255 255 255
0.025993 0.076243 -0.057153 255 255 255
0.083408 0.044205 -0.037210 255 255 255
-0.041145 0.123272 -0.023667 255 255 255
-0.199800 -0.167238 0.322933 255 255 255
-0.214123 0.046057 0.295431 255 255 255
0.198341 0.034285 -0.006371 255 255 255
-0.054336 -0.135474 -0.047168 255 255 255
-0.150556 0.195743 0.158989 255 255 255
-0.167404 -0.006056 -0.049266 255 255 255
0.116869 -0.138155 -0.057524 255 255 255
0.081220 -0.024098 -0.162279 255 255 255
0.150097 0.018544 -0.046499 255 255 255
-0.102634 0.125835 -0.015553 255 255 255
0.036137 0.147877 -0.053946 255 255 255
0.030446 -0.130151 -0.053037 255 255 255
0.015152 0.134131 -0.032455 255 255 255
-0.048046 0.099949 -0.255207 255 255 255
0.130005 0.075762 -0.023129 255 255 255
-0.143266 -0.123241 -0.028899 255 255 255
-0.165592 -0.172326 0.084400 255 255 255
-0.181935 0.030138 -0.048137 255 255 255
0.098658 0.164268 -0.022361 255 255 255
-0.169160 0.069269 0.037618 255 255 255
-0.199157 0.000426 0.209932 255 255 255
-0.131133 0.137602 -0.074840 255 255 255
-0.033278 -0.017312 -0.088345 255 255 255
0.093628 -0.074144 -0.046563 255 255 255
-0.135716 -0.149744 -0.060629 255 255 255
0.057242 -0.116894 -0.054794 255 255 255
-0.042479 0.174506 -0.034094 255 255 255
-0.108443 0.107176 -0.055883 255 255 255
0.045265 0.175095 -0.107182 255 255 255
-0.068720 0.171354 -0.025059 255 255 255
-0.191866 0.013028 0.158917 255 255 255
-0.211795 -0.013218 -0.031884 255 255 255
-0.012664 0.176965 -0.066855 255 255 255
-0.066731 -0.151734 -0.079916 255 255 255
0.036730 -0.015215 -0.061150 255 255 255
0.036253 -0.136196 -0.067530 255 255 255
-0.012345 0.140105 -0.076494 255 255 255
-0.041318 0.124165 -0.059476 255 255 255
0.082332 -0.051631 -0.218574 255 255 255
0.263509 -0.009773 -0.046330 255 255 255
-0.196476 -0.167432 0.302270 255 255 255
0.087715 -0.039986 -0.024586 255 255 255
0.042078 -0.057969 -0.046466 255 255 255
-0.010823 -0.142963 -0.047730 255 255 255
-0.048848 -0.047937 -0.183083 255 255 255
-0.068187 0.069178 0.000347 255 255 255
0.192765 0.037251 -0.036384 255 255 255
0.204182 -0.002158 -0.046881 255 255 255
-0.169113 0.170254 0.072847 255 255 255
0.155888 -0.017253 -0.204492 255 255 255
-0.158206 0.175281 -0.056815 255 255 255
-0.119400 0.007944 -0.074559 255 255 255
0.227661 -0.059546 -0.083813 255 255 255
0.000919 -0.046263 -0.047790 255 255 255
0.005522 -0.103411 -0.052130 255 255 255
-0.030314 0.194056 -0.033696 255 255 255
0.070660 0.007350 -0.049759 255 255 255
-0.150054 0.203296 0.155116 255 255 255
0.265394 -0.081610 -0.062147 255 255 255
0.245177 0.102814 -0.037296 255 255 255
-0.123520 -0.185475 0.209008 255 255 255
-0.090384 0.148014 -0.063845 255 255 255
0.081091 -0.038298 -0.152850 255 255 255
0.012262 -0.040499 -0.045887 255 255 255
-0.255771 -0.066326 0.295150 255 255 255
-0.192177 0.141265 -0.022052 255 255 255
-0.100774 -0.035749 -0.227492 255 255 255
-0.129727 -0.105076 -0.065181 255 255 255
-0.211040 -0.072009 0.251879 255 255 255
-0.134939 0.038457 -0.064909 255 255 255
0.107036 -0.098959 -0.059827 255 255 255
0.140182 -0.049467 -0.035818 255 255 255
-0.029147 -0.137808 -0.017975 255 255 255
-0.085807 0.114243 -0.026489 255 255 255
-0.159802 0.072839 -0.029228 255 255 255
-0.179948 0.171418 0.292346 255 255 255
-0.176646 -0.010590 0.029170 255 255 255
0.212676 -0.131495 -0.084628 255 255 255
-0.083329 0.132789 -0.153827 255 255 255
-0.052808 0.127585 -0.032581 255 255 255
-0.232461 -0.149046 0.230211 255 255 255
-0.033283 -0.123614 -0.040939 255 255 255
-0.083402 0.138210 -0.063096 255 255 255
0.135178 -0.024280 -0.058809 255 255 255
-0.151155 0.000572 -0.064836 255 255 255
0.226777 -0.150366 -0.034740 255 255 255
-0.005815 0.145708 -0.051352 255 255 255
0.138260 0.109323 -0.053117 255 255 255
-0.165233 -0.104542 0.116602 255 255 255
0.127160 -0.150732 -0.068854 255 255 255
0.066602 -0.136763 -0.047924 255 255 255
0.172399 0.046483 -0.202008 255 255 255
0.233712 0.119181 -0.034772 255 255 255
0.154469 -0.134407 -0.053782 255 255 255
0.212682 0.109482 -0.027577 255 255 255
-0.033062 -0.134397 -0.052546 255 255 255
-0.090750 0.128669 -0.053331 255 255 255
0.225149 -0.019934 -0.050167 255 255 255
-0.088894 0.138302 -0.059354 255 255 255
0.222377 -0.028947 -0.042945 255 255 255
-0.003177 -0.204024 -0.154516 255 255 255
0.084961 -0.166748 -0.072667 255 255 255
0.130060 0.101342 -0.006608 255 255 255
0.052185 0.164511 -0.086311 255 255 255
-0.056960 -0.140421 -0.047199 255 255 255
-0.181498 -0.107911 0.263657 255 255 255
-0.197924 0.159732 0.293828 255 255 255
0.079305 -0.104106 -0.113670 255 255 255
-0.058665 0.115396 -0.060895 255 255 255
0.216094 0.056065 -0.038531 255 255 255
-0.150584 -0.074634 -0.079484 255 255 255
-0.220973 0.006292 0.301803 255 255 255
0.074623 0.008309 -0.089947 255 255 255
-0.107532 0.077156 -0.058324 255 255 255
-0.156850 -0.087194 -0.061845 255 255 255
0.090553 -0.012918 -0.038715 255 255 255
0.005352 -0.167821 -0.039511 255 255 255
-0.187041 0.182327 0.240568 255 255 255
-0.066781 -0.122235 -0.058172 255 255 255
0.213191 0.036285 -0.026285 255 255 255
-0.081419 -0.024984 -0.064762 255 255 255
-0.219322 0.058382 0.251395 255 255 255
-0.085639 0.175633 -0.065417 255 255 255
0.071243 -0.147155 -0.038265 255 255 255
0.165501 0.146432 -0.033451 255 255 255
-0.152095 -0.149785 -0.065209 255 255 255
0.265630 -0.000504 -0.043940 255 255 255
-0.182388 0.120776 0.122132 255 255 255
-0.147702 0.078998 -0.051538 255 255 255
0.100664 0.037907 -0.063437 255 255 255
-0.167880 0.116464 -0.037657 255 255 255
0.187342 -0.099506 0.016924 255 255 255
-0.082758 0.184478 -0.058913 255 255 255
-0.170476 -0.130936 -0.049854 255 255 255
-0.123692 0.051607 -0.072549 255 255 255
0.067972 -0.111507 -0.148011 255 255 255
0.001790 0.075240 -0.067271 255 255 255
-0.094526 0.129680 0.029710 255 255 255
-0.192400 0.036073 0.172451 255 255 255
-0.173910 0.134390 0.202620 255 255 255
0.039025 -0.050883 -0.128580 255 255 255
-0.052616 0.054706 -0.048911 255 255 255
-0.085980 -0.113774 -0.074506 255 255 255
-0.190097 0.094197 0.202570 255 255 255
-0.051922 -0.060606 -0.191384 255 255 255
-0.095410 -0.176105 -0.055150 255 255 255
0.130767 0.108222 -0.019827 255 255 255
0.194469 0.040613 -0.043454 255 255 255
-0.139507 -0.130901 -0.073423 255 255 255
-0.027541 0.183934 -0.097855 255 255 255
0.024248 0.129982 -0.050779 255 255 255
-0.068726 -0.134754 0.027413 255 255 255
-0.159188 -0.082348 -0.062632 255 255 255
-0.179017 -0.150641 0.216861 255 255 255
-0.004514 0.095499 -0.049938 255 255 255
-0.183030 0.032922 0.154304 255 255 255
-0.117395 -0.004393 -0.057504 255 255 255
-0.121994 -0.096374 -0.066959 255 255 255
-0.194444 -0.138069 -0.008294 255 255 255
-0.126187 -0.055866 -0.264799 255 255 255
-0.233451 -0.070271 0.310955 255 255 255
0.046600 -0.103472 -0.037825 255 255 255
0.243599 -0.093832 -0.033689 255 255 255
-0.104368 0.021467 -0.053890 255 255 255
-0.175287 -0.190987 0.067150 255 255 255
0.141636 -0.140391 -0.046349 255 255 255
-0.053120 0.004482 -0.059121 255 255 255
0.164985 -0.143228 -0.030536 255 255 255
0.171396 -0.135752 -0.011226 255 255 255
0.087108 0.084253 -0.029193 255 255 255
0.131035 0.064242 -0.051672 255 255 255
0.090706 0.157036 -0.045262 255 255 255
-0.104164 0.101485 -0.046607 255 255 255
-0.091431 -0.092376 -0.044079 255 255 255
-0.114717 -0.147916 -0.065003 255 255 255
-0.126721 0.190022 0.105144 255 255 255
0.258805 0.023810 -0.042109 255 255 255
0.253570 -0.054466 -0.057000 255 255 255
0.186517 0.059064 -0.040166 255 255 255
-0.164424 0.152824 -0.044266 255 255 255
-0.071490 -0.082649 -0.057645 255 255 255
0.174914 -0.114499 -0.024000 255 255 255
0.103886 -0.126248 -0.041759 255 255 255
0.075453 -0.024818 -0.059685 255 255 255
0.121841 -0.151351 -0.055072 255 255 255
-0.140030 0.122868 0.012357 255 255 255
0.209028 0.118930 -0.055549 255 255 255
-0.185182 -0.065345 0.010381 255 255 255
-0.103315 -0.160079 -0.021103 255 255 255
0.233900 0.094338 -0.044859 255 255 255
-0.045631 0.138864 -0.054985 255 255 255
0.100345 0.138144 -0.032903 255 255 255
-0.115181 0.099129 -0.063268 255 255 255
-0.123122 0.050195 -0.281669 255 255 255
0.048739 0.039737 -0.063979 255 255 255
-0.064510 0.052686 -0.059669 255 255 255
0.142046 -0.113834 -0.061486 255 255 255
-0.066358 0.096897 0.000796 255 255 255
0.026112 0.203698 -0.054299 255 255 255
0.141535 0.026464 -0.029690 255 255 255
-0.159818 0.207398 0.219264 255 255 255
-0.256332 0.046212 0.278895 255 255 255
0.160246 -0.112902 -0.051172 255 255 255
0.128415 0.153171 -0.072135 255 255 255
-0.128126 0.028965 -0.019814 255 255 255
-0.039458 -0.210510 -0.073206 255 255 255
-0.181154 -0.172796 0.262509 255 255 255
-0.159319 0.095984 0.169220 255 255 255
0.078492 -0.172108 -0.026041 255 255 255
0.041642 0.167542 -0.030792 255 255 255
-0.158187 -0.165964 0.187756 255 255 255
0.166614 0.084678 -0.060657 255 255 255
-0.190076 -0.112708 -0.020547 255 255 255
0.253078 -0.016761 -0.064809 255 255 255
0.146364 0.054567 -0.067847 255 255 255
0.100284 0.072723 -0.048972 255 255 255
-0.181539 0.052614 0.055358 255 255 255
0.034088 0.002185 -0.050814 255 255 255
0.122940 0.032463 -0.063091 255 255 255
-0.069541 0.077789 -0.054036 255 255 255
-0.177310 -0.030706 -0.039945 255 255 255
-0.191248 -0.115703 0.200523 255 255 255
-0.190683 0.046344 0.220539 255 255 255
0.030218 -0.182942 -0.027693 255 255 255
-0.203758 0.029883 0.025613 255 255 255
-0.117853 0.177244 -0.073759 255 255 255
-0.207963 0.071293 0.316741 255 255 255
0.170769 0.056209 -0.035798 255 255 255
0.076175 0.008912 -0.052023 255 255 255
0.171431 0.075859 -0.050221 255 255 255
-0.189707 0.078043 0.248668 255 255 255
0.034513 -0.185383 -0.051696 255 255 255
-0.078384 0.156654 -0.050219 255 255 255
0.075831 -0.109133 -0.033763 255 255 255
0.074298 0.221286 -0.041515 255 255 255
-0.162668 -0.041176 -0.033661 255 255 255
-0.167296 0.165824 0.261617 255 255 255
-0.025765 -0.008714 -0.060922 255 255 255
0.068833 0.147582 -0.030059 255 255 255
0.118526 -0.053678 -0.039763 255 255 255
-0.162965 0.161062 0.158752 255 255 255
-0.050716 -0.090603 -0.109428 255 255 255
0.048131 0.055250 -0.123171 255 255 255
-0.128761 0.102779 -0.081830 255 255 255
-0.223371 0.142144 0.298082 255 255 255
-0.012958 -0.192226 -0.056066 255 255 255
0.113968 0.174417 -0.056722 255 255 255
-0.219728 -0.001192 0.069878 255 255 255
0.258030 -0.079629 -0.035802 255 255 255
0.043245 0.008464 -0.045080 255 255 255
0.060134 0.128617 -0.054738 255 255 255
0.190120 -0.188606 -0.048749 255 255 255
0.251650 -0.061800 -0.068733 255 255 255
0.217570 -0.019278 -0.031216 255 255 255
-0.173957 -0.085233 -0.034846 255 255 255
-0.190896 0.070578 0.178390 255 255 255
0.186207 0.091838 -0.037957 255 255 255
-0.188394 -0.037160 0.165878 255 255 255
0.050291 0.193468 -0.092171 255 255 255
0.050566 -0.077981 -0.056782 255 255 255
0.069029 0.191054 -0.032563 255 255 255
0.117997 0.177170 -0.042338 255 255 255
-0.037906 -0.174462 -0.083705 255 255 255
-0.071627 0.089655 -0.048990 255 255 255
-0.069500 0.162277 -0.072893 255 255 255
0.254338 0.041690 -0.041516 255 255 255
-0.017276 0.191889 -0.044825 255 255 255
-0.183073 0.132314 0.150706 255 255 255
-0.164404 -0.153479 0.239602 255 255 255
0.120988 0.108575 -0.030334 255 255 255
-0.045918 0.018195 0.014461 255 255 255
0.041148 -0.064963 -0.040549 255 255 255
-0.050345 0.145948 -0.002898 255 255 255
-0.053999 0.112414 0.008661 255 255 255
-0.012767 0.066702 -0.281781 255 255 255
-0.068988 -0.155959 -0.018283 255 255 255
-0.039223 -0.179936 -0.027491 255 255 255
0.179095 0.149664 -0.084612 255 255 255
-0.065678 -0.159171 -0.059192 255 255 255
