ply
    		format ascii 1.0
    		element vertex 2048
    		property float x
    		property float y
    		property float z
    		property uchar red
    		property uchar green
    		property uchar blue
    		end_header
-0.188295 0.067537 0.191893 255 255 255
-0.226241 -0.126143 0.286049 255 255 255
0.172188 0.082453 -0.022253 255 255 255
0.069237 -0.025951 -0.024471 255 255 255
0.266746 0.040154 0.006410 255 255 255
0.128821 -0.086844 -0.067905 255 255 255
-0.067704 0.012199 0.023788 255 255 255
-0.196266 -0.142429 0.225274 255 255 255
-0.019622 0.014826 -0.018570 255 255 255
-0.211724 0.212586 0.274882 255 255 255
0.064799 -0.035834 -0.036237 255 255 255
-0.195418 0.028403 0.096401 255 255 255
-0.244695 0.081440 0.252660 255 255 255
-0.039666 -0.145345 0.022501 255 255 255
-0.034373 0.169959 -0.008984 255 255 255
-0.301697 -0.064292 0.312628 255 255 255
-0.271712 0.013190 0.280372 255 255 255
-0.069723 -0.051586 -0.007429 255 255 255
-0.070251 -0.018406 -0.009682 255 255 255
-0.130238 0.140400 -0.014628 255 255 255
0.079544 -0.191848 -0.020217 255 255 255
-0.050527 -0.140037 0.001109 255 255 255
-0.180886 -0.161644 0.199243 255 255 255
-0.079816 0.012327 -0.028639 255 255 255
-0.052138 0.069591 -0.003824 255 255 255
0.045216 -0.005755 -0.026402 255 255 255
-0.090787 -0.126957 0.011969 255 255 255
0.104672 0.129920 -0.013389 255 255 255
0.200408 0.021579 -0.023481 255 255 255
0.142091 -0.071592 -0.018039 255 255 255
0.065169 -0.129047 -0.028329 255 255 255
-0.237456 0.051889 0.273156 255 255 255
0.047001 -0.088008 -0.005359 255 255 255
-0.179563 0.073678 0.187108 255 255 255
-0.079190 -0.174228 -0.042360 255 255 255
0.200669 -0.078717 -0.003311 255 255 255
0.139995 0.044108 0.013623 255 255 255
0.060838 0.090416 0.002401 255 255 255
0.233030 0.001478 0.000730 255 255 255
-0.153481 0.008760 0.009820 255 255 255
-0.109089 0.182573 0.009025 255 255 255
0.183662 0.028601 -0.008114 255 255 255
-0.166917 -0.009119 0.084595 255 255 255
0.092904 -0.082793 -0.039532 255 255 255
-0.234958 -0.009284 0.089703 255 255 255
-0.265338 -0.050730 0.265686 255 255 255
-0.042980 -0.132918 0.041178 255 255 255
-0.268095 -0.001967 0.286300 255 255 255
-0.144643 0.078356 -0.007185 255 255 255
-0.237395 -0.021907 0.205046 255 255 255
0.071421 0.015482 -0.005284 255 255 255
-0.062199 -0.105736 0.034253 255 255 255
-0.137204 0.064921 0.141193 255 255 255
0.105874 0.017741 0.012726 255 255 255
-0.085099 0.101617 0.096183 255 255 255
-0.201528 0.114809 0.157779 255 255 255
-0.145168 0.005114 0.053985 255 255 255
-0.060611 -0.110315 -0.019776 255 255 255
0.166258 -0.133527 -0.014701 255 255 255
0.056216 0.077139 0.064439 255 255 255
0.007654 -0.038749 -0.020177 255 255 255
0.168014 -0.128743 -0.232552 255 255 255
-0.116193 -0.119730 -0.012648 255 255 255
-0.019464 -0.010171 -0.020170 255 255 255
0.158638 -0.041731 -0.022015 255 255 255
-0.067949 0.118866 0.052200 255 255 255
0.019490 -0.040346 0.004909 255 255 255
0.091233 -0.159235 -0.061411 255 255 255
-0.091277 -0.108809 -0.022461 255 255 255
-0.221192 0.011044 0.090615 255 255 255
-0.188437 0.006179 0.037890 255 255 255
0.108614 -0.009260 0.005185 255 255 255
0.226869 -0.028049 0.016036 255 255 255
-0.217131 -0.083260 0.197806 255 255 255
-0.134991 0.086465 0.061889 255 255 255
0.178717 0.025106 0.001481 255 255 255
-0.004923 -0.157192 -0.013912 255 255 255
0.150004 0.147966 -0.003597 255 255 255
-0.081074 0.022561 0.081086 255 255 255
0.117799 0.145015 -0.014638 255 255 255
-0.182851 0.176576 0.120579 255 255 255
0.067927 -0.130479 0.005882 255 255 255
-0.196049 -0.131815 0.196583 255 255 255
0.050110 -0.036849 -0.010242 255 255 255
0.058500 0.098922 0.009219 255 255 255
0.106293 -0.062660 -0.011525 255 255 255
-0.243233 0.175321 0.245682 255 255 255
0.154493 0.010971 -0.016702 255 255 255
0.052541 -0.118068 -0.021475 255 255 255
0.064361 0.127817 0.032634 255 255 255
-0.030988 -0.078850 0.019026 255 255 255
-0.177944 -0.050824 0.050797 255 255 255
0.107697 -0.079073 -0.097445 255 255 255
0.021139 0.187552 -0.004105 255 255 255
-0.255291 -0.092705 0.254723 255 255 255
-0.243400 0.011096 0.131546 255 255 255
-0.001786 -0.051610 0.000892 255 255 255
-0.065814 -0.108703 -0.019528 255 255 255
0.048927 -0.047442 -0.012536 255 255 255
0.096082 0.007623 -0.008990 255 255 255
-0.227581 -0.060221 0.185432 255 255 255
-0.106046 0.090464 0.032322 255 255 255
-0.094437 -0.102476 -0.006739 255 255 255
-0.205158 -0.137754 0.034886 255 255 255
0.074029 -0.136545 -0.225540 255 255 255
0.032136 0.134487 0.051611 255 255 255
0.119600 0.135461 -0.025598 255 255 255
-0.037000 -0.013347 -0.002156 255 255 255
-0.248889 -0.115917 0.314074 255 255 255
0.112879 -0.101617 -0.013065 255 255 255
0.140142 -0.161042 -0.001671 255 255 255
-0.195660 -0.020411 -0.061829 255 255 255
-0.120979 -0.081365 -0.010721 255 255 255
-0.089320 -0.053461 -0.004193 255 255 255
-0.233933 -0.007503 0.100743 255 255 255
-0.019646 0.044862 -0.048230 255 255 255
0.160703 0.067538 -0.001801 255 255 255
-0.278183 0.012262 0.298773 255 255 255
-0.156012 -0.021795 0.016802 255 255 255
-0.238256 0.040751 0.269678 255 255 255
0.002157 0.107032 -0.005775 255 255 255
-0.239732 0.065086 0.277878 255 255 255
0.167762 -0.023007 0.009687 255 255 255
-0.237670 -0.013993 0.283731 255 255 255
0.116753 0.135973 -0.003457 255 255 255
-0.094315 0.070650 0.029420 255 255 255
-0.212161 -0.012939 0.145298 255 255 255
0.137124 0.150822 -0.032035 255 255 255
0.166700 -0.116853 -0.012804 255 255 255
-0.195993 0.055881 0.150063 255 255 255
0.117518 0.013907 -0.030755 255 255 255
0.074544 -0.123337 0.008525 255 255 255
0.164269 0.072881 -0.203359 255 255 255
0.242202 0.005158 -0.029481 255 255 255
-0.224551 -0.041486 0.196284 255 255 255
0.000362 0.109671 -0.013734 255 255 255
0.153049 -0.071649 -0.162018 255 255 255
0.191051 0.080817 -0.014634 255 255 255
0.033103 -0.159232 0.010396 255 255 255
0.076994 0.173729 -0.025776 255 255 255
-0.145082 -0.062389 0.079134 255 255 255
-0.114346 0.096292 -0.159557 255 255 255
-0.222491 0.204469 0.271376 255 255 255
-0.208476 0.049171 0.037655 255 255 255
0.199746 0.052785 -0.027924 255 255 255
-0.122891 0.031065 0.003254 255 255 255
-0.133050 -0.122967 0.035352 255 255 255
0.016645 0.056933 -0.011748 255 255 255
0.107993 -0.055476 0.002786 255 255 255
0.009750 -0.160511 -0.054764 255 255 255
0.086437 -0.044885 -0.070838 255 255 255
0.026648 -0.106878 -0.005545 255 255 255
0.217062 -0.145717 -0.049203 255 255 255
0.197065 -0.029400 -0.029581 255 255 255
0.000716 0.148584 -0.008811 255 255 255
-0.242027 0.053257 0.282206 255 255 255
-0.253460 -0.023708 0.238018 255 255 255
-0.003787 0.131562 0.016780 255 255 255
-0.006856 0.149762 -0.006482 255 255 255
-0.137243 0.114605 0.136692 255 255 255
-0.063025 0.186951 -0.009455 255 255 255
-0.210969 -0.102288 0.139202 255 255 255
-0.206356 0.048572 0.079399 255 255 255
-0.064184 -0.132678 -0.005186 255 255 255
0.229320 -0.018475 -0.006737 255 255 255
-0.024521 0.105391 -0.011561 255 255 255
0.139569 -0.127106 -0.008763 255 255 255
-0.185560 0.113571 0.056528 255 255 255
-0.150949 -0.048687 0.113287 255 255 255
-0.074504 -0.040394 -0.004788 255 255 255
0.093221 -0.164137 -0.006893 255 255 255
-0.031233 0.076444 -0.004507 255 255 255
-0.095324 0.087574 0.035485 255 255 255
0.021826 0.126339 0.005836 255 255 255
-0.200915 0.086346 0.048431 255 255 255
0.032497 -0.051730 -0.018288 255 255 255
-0.009234 -0.111972 -0.000391 255 255 255
-0.011011 -0.071196 -0.007417 255 255 255
-0.182328 0.168184 0.224834 255 255 255
0.128782 0.113271 -0.006115 255 255 255
0.058933 0.144791 -0.005043 255 255 255
-0.129792 -0.098796 -0.039866 255 255 255
-0.147263 0.103354 0.049143 255 255 255
-0.236065 -0.000857 0.148694 255 255 255
-0.230077 -0.093643 0.272827 255 255 255
-0.234496 0.079053 0.070980 255 255 255
-0.187947 0.082165 0.071207 255 255 255
0.007159 -0.164523 -0.016957 255 255 255
-0.032931 0.117600 -0.015399 255 255 255
-0.203509 0.125895 0.109401 255 255 255
0.005389 -0.134990 0.000957 255 255 255
-0.053104 0.097663 -0.027396 255 255 255
-0.197911 0.007163 0.058350 255 255 255
0.239316 -0.105097 -0.000651 255 255 255
0.051893 0.019445 -0.053830 255 255 255
-0.220774 0.148142 0.150739 255 255 255
0.042276 0.061069 -0.008683 255 255 255
-0.023643 -0.136733 -0.020911 255 255 255
0.069644 0.003637 0.032291 255 255 255
-0.224858 -0.206067 0.221682 255 255 255
-0.244016 0.019814 0.206434 255 255 255
0.094666 0.035098 -0.007023 255 255 255
-0.093849 -0.069537 -0.013861 255 255 255
0.060657 -0.077054 -0.009282 255 255 255
-0.182055 -0.036159 0.057382 255 255 255
0.032557 0.017181 -0.010871 255 255 255
0.139945 0.138336 0.003165 255 255 255
0.148570 -0.096240 -0.035297 255 255 255
0.065404 0.144701 -0.004470 255 255 255
-0.226572 0.130129 0.296989 255 255 255
-0.131643 0.110802 -0.227856 255 255 255
-0.173867 0.057803 0.155512 255 255 255
-0.232779 0.118425 0.318217 255 255 255
-0.024622 0.111362 -0.024054 255 255 255
-0.095013 0.053339 -0.034035 255 255 255
-0.131718 -0.002415 -0.003468 255 255 255
0.160420 0.011234 -0.029230 255 255 255
-0.085962 -0.064242 0.084719 255 255 255
0.045236 -0.024682 -0.027001 255 255 255
-0.207581 0.040393 0.027335 255 255 255
-0.182324 -0.015367 0.010257 255 255 255
0.063383 -0.102312 -0.009028 255 255 255
0.019647 -0.008333 -0.036055 255 255 255
0.108227 -0.065476 -0.161208 255 255 255
0.298363 -0.038195 -0.018161 255 255 255
0.009728 -0.111086 -0.006845 255 255 255
-0.021332 0.143177 0.107392 255 255 255
0.027135 -0.007669 -0.075621 255 255 255
-0.264564 -0.058449 0.287281 255 255 255
-0.065784 0.132814 0.027954 255 255 255
-0.031581 0.137295 -0.000726 255 255 255
-0.011103 0.118152 -0.012070 255 255 255
0.169899 0.006737 -0.009897 255 255 255
-0.226215 0.069394 0.103870 255 255 255
-0.004267 -0.001019 -0.018813 255 255 255
0.144020 -0.044788 0.044557 255 255 255
0.133835 0.104890 -0.207372 255 255 255
0.058651 0.099961 -0.044216 255 255 255
-0.082849 -0.122285 -0.000550 255 255 255
0.151733 -0.059399 -0.004432 255 255 255
-0.261194 -0.013162 0.160404 255 255 255
-0.013337 -0.146861 -0.007536 255 255 255
-0.043204 -0.119216 -0.238760 255 255 255
0.086995 0.099665 0.049520 255 255 255
0.163409 0.016970 0.011420 255 255 255
-0.227559 0.116057 0.150928 255 255 255
0.217994 -0.086224 -0.052292 255 255 255
0.136788 -0.113720 0.099376 255 255 255
0.163060 0.071758 -0.000955 255 255 255
-0.121014 0.065610 0.003739 255 255 255
-0.061360 -0.153406 0.020103 255 255 255
0.097010 -0.154826 -0.000249 255 255 255
0.103110 0.073655 -0.028080 255 255 255
-0.241190 0.046044 0.196537 255 255 255
-0.222767 -0.075173 0.191498 255 255 255
-0.214837 0.144600 0.114369 255 255 255
-0.229658 -0.038435 0.187128 255 255 255
-0.098582 0.107624 0.107794 255 255 255
0.024183 -0.080155 -0.006242 255 255 255
0.092921 0.129400 -0.019707 255 255 255
-0.156431 -0.017864 0.030764 255 255 255
-0.065855 -0.043074 -0.001394 255 255 255
-0.208594 0.088894 0.151146 255 255 255
-0.141434 -0.121173 0.126652 255 255 255
0.018364 0.142085 -0.014923 255 255 255
-0.110941 0.150433 0.036937 255 255 255
-0.173968 0.131722 0.187637 255 255 255
0.057241 -0.018647 0.018698 255 255 255
0.173721 -0.065286 -0.071815 255 255 255
-0.259966 -0.098685 0.215881 255 255 255
-0.237221 0.141000 0.317217 255 255 255
-0.065124 -0.124048 0.059490 255 255 255
-0.103635 -0.057249 0.025232 255 255 255
0.123175 0.076092 -0.093396 255 255 255
-0.026427 -0.013662 0.029449 255 255 255
0.147838 0.163838 -0.021846 255 255 255
0.137382 0.032543 -0.018842 255 255 255
-0.101357 -0.016493 0.021561 255 255 255
-0.233728 0.067636 0.144999 255 255 255
0.142443 0.082619 -0.076549 255 255 255
-0.027852 0.084912 0.002032 255 255 255
0.006066 -0.056878 -0.025872 255 255 255
0.239722 -0.074131 -0.002556 255 255 255
-0.016962 -0.154779 0.018800 255 255 255
0.080827 0.151420 -0.013123 255 255 255
-0.162117 -0.083585 0.012016 255 255 255
-0.223010 0.087682 0.271964 255 255 255
-0.049168 0.102971 -0.017344 255 255 255
-0.208341 -0.068692 0.164087 255 255 255
-0.022090 -0.147671 -0.030334 255 255 255
-0.003003 -0.087936 -0.006146 255 255 255
0.019789 -0.064036 -0.010325 255 255 255
-0.025816 -0.031051 0.040344 255 255 255
-0.255702 -0.070485 0.193695 255 255 255
0.122956 0.126597 -0.011730 255 255 255
-0.213684 -0.032738 0.227939 255 255 255
0.138894 0.135979 -0.064038 255 255 255
-0.219942 -0.058672 0.151536 255 255 255
-0.152436 0.138086 0.124009 255 255 255
0.070545 0.098563 -0.004717 255 255 255
0.144117 0.093669 -0.013255 255 255 255
-0.098212 0.106918 0.013485 255 255 255
-0.248075 -0.044881 0.161336 255 255 255
0.022946 -0.000168 -0.107048 255 255 255
0.092703 -0.040212 -0.015448 255 255 255
-0.255300 -0.089772 0.241161 255 255 255
0.130368 -0.117658 -0.005950 255 255 255
-0.212383 0.043992 0.296818 255 255 255
-0.235524 0.086342 0.210174 255 255 255
-0.197720 0.186684 0.317483 255 255 255
-0.015499 0.059987 0.013155 255 255 255
-0.018749 0.016563 -0.013837 255 255 255
-0.203212 -0.193048 0.286307 255 255 255
0.167455 0.089465 0.003163 255 255 255
0.207169 -0.064329 -0.013554 255 255 255
0.148369 -0.107848 -0.002466 255 255 255
-0.107310 -0.128855 -0.108398 255 255 255
0.037098 0.021916 -0.012537 255 255 255
0.069908 0.015995 -0.066046 255 255 255
0.119506 -0.008667 -0.008936 255 255 255
0.177717 -0.036465 -0.027974 255 255 255
-0.083969 0.176228 0.020918 255 255 255
-0.244717 0.073624 0.292263 255 255 255
-0.233510 0.078547 0.258032 255 255 255
-0.196199 -0.113100 0.112350 255 255 255
0.218650 -0.077621 -0.044771 255 255 255
0.120077 0.153643 -0.009838 255 255 255
0.015679 -0.109770 -0.030159 255 255 255
0.035267 -0.151393 0.004054 255 255 255
-0.232079 -0.050642 0.200689 255 255 255
-0.238764 0.068416 0.261320 255 255 255
-0.005380 0.036325 -0.077893 255 255 255
0.212835 -0.122969 -0.030970 255 255 255
-0.045337 -0.153292 -0.008797 255 255 255
0.096889 -0.096189 -0.015152 255 255 255
-0.191674 -0.140115 0.295709 255 255 255
-0.239058 0.053544 0.226072 255 255 255
-0.136563 0.057998 -0.002803 255 255 255
0.116945 0.028888 -0.024233 255 255 255
-0.006780 -0.128323 -0.007788 255 255 255
-0.106302 0.031590 -0.257016 255 255 255
0.011069 -0.001134 0.025257 255 255 255
0.063172 0.170482 0.011076 255 255 255
-0.019988 -0.097503 -0.018618 255 255 255
-0.194086 0.066134 0.104673 255 255 255
0.023096 0.111108 0.044497 255 255 255
0.152330 -0.052993 -0.173618 255 255 255
-0.048848 0.109535 0.004501 255 255 255
0.043818 -0.059118 -0.014105 255 255 255
-0.049835 0.090266 0.006549 255 255 255
0.228087 -0.031982 -0.031376 255 255 255
-0.212040 0.182446 0.279174 255 255 255
-0.006433 -0.160246 -0.019510 255 255 255
-0.128227 -0.002353 -0.007269 255 255 255
-0.204463 -0.129622 0.071772 255 255 255
-0.257356 -0.003718 0.249729 255 255 255
-0.244277 0.043328 0.174252 255 255 255
-0.149155 0.017494 0.013314 255 255 255
0.184141 0.050843 -0.004953 255 255 255
0.103931 -0.125944 0.028687 255 255 255
-0.218296 -0.060425 0.033491 255 255 255
0.049223 0.112572 -0.021268 255 255 255
0.193545 -0.071871 -0.022226 255 255 255
-0.133405 -0.132182 -0.030352 255 255 255
0.115878 0.090659 0.008184 255 255 255
-0.199770 0.100982 0.206973 255 255 255
-0.083637 -0.124499 -0.017493 255 255 255
0.061153 -0.002931 -0.029234 255 255 255
-0.221938 -0.156042 0.116143 255 255 255
0.135983 0.053905 -0.016229 255 255 255
0.216775 -0.012602 -0.011838 255 255 255
0.098328 0.066105 -0.183040 255 255 255
-0.047454 0.138644 -0.100378 255 255 255
-0.237838 -0.060712 0.215867 255 255 255
0.153741 -0.108762 -0.010660 255 255 255
0.030047 0.120555 -0.247892 255 255 255
-0.240515 0.043816 0.201729 255 255 255
-0.111749 -0.052318 0.017751 255 255 255
-0.180014 -0.079475 0.024776 255 255 255
0.089370 -0.100841 -0.009350 255 255 255
0.117931 0.090943 0.002094 255 255 255
0.023290 0.143599 0.028928 255 255 255
0.076701 0.077907 -0.031509 255 255 255
-0.034083 -0.107087 -0.181641 255 255 255
0.046740 0.089301 0.023181 255 255 255
0.101257 -0.070022 -0.017808 255 255 255
-0.008589 0.139372 -0.012930 255 255 255
-0.225472 0.150381 0.103024 255 255 255
-0.120135 0.114994 0.031079 255 255 255
0.236609 -0.159280 -0.021146 255 255 255
0.151328 0.025415 -0.013403 255 255 255
-0.218339 -0.026891 0.052867 255 255 255
0.144268 -0.166753 -0.009845 255 255 255
-0.057733 0.020968 0.016787 255 255 255
0.216386 -0.028296 0.001488 255 255 255
0.067535 0.114212 -0.038006 255 255 255
-0.159542 -0.156107 0.089200 255 255 255
-0.089611 0.178761 0.014809 255 255 255
-0.235825 -0.165346 0.288362 255 255 255
0.192169 0.001282 -0.020985 255 255 255
0.053922 -0.146711 0.000271 255 255 255
0.023473 0.129072 0.002790 255 255 255
0.119301 -0.059041 0.012756 255 255 255
0.151491 0.002585 -0.016038 255 255 255
-0.211533 -0.044590 0.091194 255 255 255
0.237222 0.197581 -0.025546 255 255 255
-0.259042 -0.158631 0.289713 255 255 255
-0.101704 0.144674 0.020894 255 255 255
-0.241345 0.088668 0.230385 255 255 255
-0.093217 0.093240 0.083210 255 255 255
-0.228125 -0.085886 0.203686 255 255 255
0.099072 -0.097957 0.002069 255 255 255
0.090071 -0.029602 -0.013605 255 255 255
-0.178785 -0.061463 0.233778 255 255 255
0.043598 0.113163 0.017516 255 255 255
0.031522 -0.117919 -0.018600 255 255 255
-0.208412 -0.033254 0.188680 255 255 255
0.165877 -0.145619 -0.056458 255 255 255
-0.150736 0.094082 0.038415 255 255 255
-0.129369 0.078791 0.070278 255 255 255
0.077796 0.046077 0.002462 255 255 255
0.078248 -0.052957 -0.009458 255 255 255
-0.102593 -0.111148 0.008526 255 255 255
0.063087 0.141786 -0.020217 255 255 255
-0.027276 -0.056469 0.080366 255 255 255
-0.051224 -0.037535 -0.007619 255 255 255
0.033948 0.142500 -0.000955 255 255 255
-0.263854 0.012559 0.184657 255 255 255
0.242233 0.073852 -0.034464 255 255 255
0.005043 -0.151805 0.008880 255 255 255
-0.204301 -0.159963 0.271200 255 255 255
-0.093978 0.123171 -0.027164 255 255 255
0.120408 -0.129244 0.000956 255 255 255
-0.187765 0.152596 0.241540 255 255 255
0.094460 0.146184 0.006537 255 255 255
-0.072554 -0.006007 -0.011554 255 255 255
-0.058611 -0.132313 0.023877 255 255 255
0.129507 -0.085731 -0.029481 255 255 255
-0.234847 0.136435 0.260645 255 255 255
-0.209601 0.164234 0.267018 255 255 255
0.034979 -0.096362 -0.016958 255 255 255
-0.246427 -0.087457 0.265818 255 255 255
-0.145221 0.100570 -0.234718 255 255 255
-0.215664 0.086342 0.054799 255 255 255
-0.014435 -0.107322 -0.005427 255 255 255
-0.202850 -0.003609 0.059300 255 255 255
0.195360 0.071661 -0.067288 255 255 255
-0.128096 -0.019013 0.005174 255 255 255
0.109628 0.053381 -0.002204 255 255 255
0.207630 -0.072099 -0.018294 255 255 255
-0.207735 0.008990 0.132350 255 255 255
-0.278020 0.059061 0.323746 255 255 255
-0.029717 0.091169 -0.065500 255 255 255
0.196866 0.101311 0.018713 255 255 255
0.146609 0.044156 -0.013043 255 255 255
0.000515 0.116533 -0.013096 255 255 255
0.002642 -0.143388 -0.008096 255 255 255
-0.039729 0.037511 -0.008097 255 255 255
-0.248111 -0.037982 0.187647 255 255 255
0.056842 -0.180623 -0.051354 255 255 255
0.141561 0.132764 -0.018403 255 255 255
0.118906 0.130804 0.038905 255 255 255
0.199902 -0.067109 0.006606 255 255 255
0.104749 0.088369 -0.002738 255 255 255
-0.050691 -0.061628 -0.009788 255 255 255
-0.100907 -0.183675 -0.019514 255 255 255
0.001672 0.096442 -0.028635 255 255 255
0.059056 -0.063999 -0.239822 255 255 255
0.190357 0.120270 -0.018937 255 255 255
0.028533 -0.113248 -0.011991 255 255 255
-0.135655 0.131657 -0.003943 255 255 255
-0.241707 0.056612 0.186170 255 255 255
0.002072 -0.043498 -0.020599 255 255 255
-0.038623 -0.152039 -0.013887 255 255 255
0.102594 -0.051403 -0.027598 255 255 255
0.090756 -0.038334 -0.022699 255 255 255
-0.102912 0.106852 -0.233224 255 255 255
0.218257 0.100764 -0.020715 255 255 255
-0.234471 -0.001510 0.220935 255 255 255
-0.153473 0.170201 0.138042 255 255 255
0.154508 0.101503 -0.009173 255 255 255
-0.068184 0.150961 0.007169 255 255 255
0.118056 0.111977 -0.020041 255 255 255
-0.033138 0.173913 -0.027845 255 255 255
0.000554 -0.090691 0.053658 255 255 255
-0.102278 -0.006660 0.013053 255 255 255
-0.028688 0.003783 -0.030773 255 255 255
-0.243645 0.121781 0.259413 255 255 255
0.009668 -0.119103 -0.046260 255 255 255
-0.083595 0.141598 0.013195 255 255 255
0.030648 -0.055307 -0.031722 255 255 255
-0.238785 -0.090147 0.290985 255 255 255
-0.199298 0.127140 0.153339 255 255 255
0.156490 -0.107698 -0.016833 255 255 255
-0.226611 -0.164342 0.232140 255 255 255
-0.218191 -0.047009 0.162134 255 255 255
-0.162262 -0.128815 0.000108 255 255 255
-0.109532 -0.141347 0.040080 255 255 255
-0.026817 -0.090545 -0.071814 255 255 255
-0.230687 0.139343 0.233165 255 255 255
0.096449 0.194792 -0.007257 255 255 255
0.196490 0.013613 0.007168 255 255 255
-0.236613 0.023561 0.046231 255 255 255
0.141888 0.158194 -0.047187 255 255 255
0.247910 -0.120458 -0.020491 255 255 255
0.176251 0.024567 0.005686 255 255 255
0.127648 0.109335 -0.002836 255 255 255
-0.017258 0.002308 -0.015251 255 255 255
-0.131705 -0.167872 0.015101 255 255 255
0.189349 0.048238 0.001829 255 255 255
-0.150290 0.173299 0.138127 255 255 255
-0.067266 0.107373 -0.221187 255 255 255
0.087955 -0.113377 -0.055330 255 255 255
-0.096824 0.073217 -0.021572 255 255 255
0.013191 0.150048 -0.009263 255 255 255
0.079724 0.124352 -0.015287 255 255 255
-0.157526 0.059082 -0.010081 255 255 255
-0.027162 0.111364 0.014657 255 255 255
-0.079381 0.067410 -0.018980 255 255 255
-0.177671 0.202474 0.278583 255 255 255
0.097934 -0.031446 -0.075838 255 255 255
-0.239948 0.101659 0.229691 255 255 255
-0.051209 -0.137077 -0.008420 255 255 255
-0.052189 -0.064305 -0.002242 255 255 255
-0.029432 0.091651 0.078055 255 255 255
0.197816 -0.170538 -0.011344 255 255 255
0.113022 0.025683 -0.123305 255 255 255
0.012162 0.032397 -0.007785 255 255 255
-0.012121 -0.028098 -0.074732 255 255 255
-0.207592 0.040297 0.158190 255 255 255
-0.082091 -0.023819 0.031698 255 255 255
-0.209830 -0.019413 0.200798 255 255 255
-0.196973 -0.092162 0.017296 255 255 255
-0.036204 0.161534 -0.018246 255 255 255
-0.111371 0.118777 0.054198 255 255 255
-0.084720 -0.145682 -0.039008 255 255 255
-0.164787 -0.115995 -0.005860 255 255 255
-0.224534 0.043337 0.130276 255 255 255
0.140096 -0.115544 -0.031990 255 255 255
-0.072215 0.160301 -0.215154 255 255 255
-0.056562 0.016219 0.008899 255 255 255
0.069128 -0.156145 -0.085958 255 255 255
0.185105 -0.105487 0.005741 255 255 255
0.110916 0.063629 0.000119 255 255 255
-0.023621 0.095102 0.004890 255 255 255
-0.057726 0.003999 -0.018161 255 255 255
-0.222405 -0.153009 0.244656 255 255 255
-0.008285 -0.132212 -0.087807 255 255 255
-0.128847 0.041067 0.000566 255 255 255
0.137401 -0.043202 -0.030085 255 255 255
-0.002924 -0.033846 -0.008808 255 255 255
-0.112931 -0.003350 -0.001761 255 255 255
0.167491 -0.009922 -0.005745 255 255 255
0.078553 0.058882 0.007163 255 255 255
-0.022787 0.002768 -0.013216 255 255 255
-0.232114 -0.090049 0.226175 255 255 255
0.247407 0.005426 -0.016493 255 255 255
0.076002 0.044024 -0.007576 255 255 255
-0.010791 -0.138778 -0.018366 255 255 255
0.024430 -0.099583 -0.092244 255 255 255
-0.065847 -0.065554 0.000821 255 255 255
-0.234163 -0.058377 0.160079 255 255 255
-0.196432 -0.136709 0.258460 255 255 255
0.109427 0.124309 0.001365 255 255 255
0.077313 0.072797 -0.006277 255 255 255
0.204889 0.018361 -0.013829 255 255 255
0.026112 -0.131496 0.003610 255 255 255
-0.104509 0.108991 -0.029160 255 255 255
0.084147 0.015339 0.012825 255 255 255
-0.244310 0.114377 0.263164 255 255 255
-0.254387 -0.039350 0.228537 255 255 255
0.005506 -0.135255 -0.016015 255 255 255
0.098851 0.077738 0.004699 255 255 255
0.097546 -0.116477 -0.016092 255 255 255
-0.166882 -0.030874 0.054817 255 255 255
0.022686 -0.151442 0.016894 255 255 255
0.197396 0.044243 0.007938 255 255 255
-0.092080 -0.039855 -0.008312 255 255 255
-0.024933 0.033951 -0.026187 255 255 255
-0.180103 -0.133549 0.184028 255 255 255
0.155598 0.019749 -0.020581 255 255 255
-0.253296 -0.024769 0.271136 255 255 255
0.137790 0.144781 0.012489 255 255 255
0.185403 -0.015313 -0.020159 255 255 255
-0.156035 0.088134 -0.074158 255 255 255
0.078128 -0.115775 -0.008602 255 255 255
-0.036793 0.136506 0.016252 255 255 255
0.157175 0.012202 0.020543 255 255 255
0.104991 0.056850 -0.121320 255 255 255
-0.058513 -0.021161 0.002533 255 255 255
0.168917 -0.084905 0.047808 255 255 255
-0.254664 0.032489 0.278905 255 255 255
-0.222849 -0.130592 0.188522 255 255 255
-0.026881 0.085971 -0.222114 255 255 255
-0.248545 -0.040133 0.258439 255 255 255
-0.039678 -0.082753 -0.016342 255 255 255
-0.097274 -0.029262 -0.004269 255 255 255
0.223671 -0.096704 0.023681 255 255 255
0.093015 -0.100349 -0.008890 255 255 255
0.193366 -0.136210 -0.054177 255 255 255
-0.015069 0.157909 -0.035146 255 255 255
0.089613 0.012806 -0.016230 255 255 255
0.166705 0.043531 -0.012204 255 255 255
0.016242 -0.116045 -0.029595 255 255 255
0.136451 0.042507 -0.010156 255 255 255
-0.086205 -0.109110 -0.012351 255 255 255
-0.115594 -0.048462 0.004265 255 255 255
0.001789 0.000184 0.006802 255 255 255
-0.014537 0.077979 -0.141524 255 255 255
-0.240250 -0.054219 0.226993 255 255 255
0.089464 -0.114831 -0.011737 255 255 255
0.036096 0.065789 -0.007145 255 255 255
0.073407 0.045626 -0.008415 255 255 255
0.033873 -0.135309 -0.029257 255 255 255
-0.197773 0.110552 0.253715 255 255 255
0.153540 0.100930 0.007273 255 255 255
0.053307 0.148097 0.015792 255 255 255
-0.227459 0.100999 0.025683 255 255 255
-0.075120 -0.171769 -0.000966 255 255 255
0.102866 -0.128828 0.021770 255 255 255
0.218049 -0.050123 -0.006450 255 255 255
-0.039698 -0.157747 -0.009759 255 255 255
0.101357 -0.034328 0.007368 255 255 255
-0.051521 -0.019647 0.010840 255 255 255
-0.025816 0.132048 -0.029036 255 255 255
-0.035294 0.173002 0.019099 255 255 255
0.146489 0.119795 -0.015799 255 255 255
-0.226947 -0.114350 0.108868 255 255 255
-0.209820 -0.087647 0.180652 255 255 255
0.093018 -0.076069 -0.110891 255 255 255
0.097254 -0.129871 -0.002355 255 255 255
0.021546 0.009929 0.027140 255 255 255
0.202126 0.057034 -0.005392 255 255 255
-0.079989 -0.095750 -0.107535 255 255 255
0.096709 -0.067135 0.044481 255 255 255
0.065099 0.099146 0.001963 255 255 255
-0.021808 -0.188046 -0.003336 255 255 255
-0.134926 0.055810 -0.011485 255 255 255
0.223715 -0.082874 -0.040769 255 255 255
-0.045608 -0.092090 -0.029732 255 255 255
-0.131042 0.022038 -0.005666 255 255 255
-0.037573 0.149146 0.000102 255 255 255
0.046010 -0.019259 -0.002807 255 255 255
-0.225784 -0.037457 0.065657 255 255 255
-0.084238 -0.017413 0.028514 255 255 255
-0.084999 -0.038542 -0.004891 255 255 255
-0.230905 -0.038435 0.220060 255 255 255
0.018431 -0.099965 -0.012766 255 255 255
0.077837 0.096182 0.012120 255 255 255
-0.243901 0.072612 0.149340 255 255 255
0.030560 0.122349 -0.143545 255 255 255
-0.075162 -0.163928 0.019752 255 255 255
-0.221303 -0.031329 0.094535 255 255 255
0.161599 -0.145520 -0.007567 255 255 255
-0.202507 -0.005063 0.027099 255 255 255
-0.032884 0.028266 0.043111 255 255 255
0.080514 -0.074686 -0.033932 255 255 255
-0.240150 0.069211 0.228674 255 255 255
0.157057 -0.027489 -0.024271 255 255 255
-0.057434 0.110274 -0.009877 255 255 255
0.204845 -0.196250 -0.006578 255 255 255
-0.061791 0.101612 0.069096 255 255 255
0.105143 -0.089307 0.002517 255 255 255
-0.086625 0.013394 -0.000942 255 255 255
-0.250927 -0.008654 0.202813 255 255 255
-0.227735 -0.086254 0.127856 255 255 255
0.007466 -0.017905 -0.031510 255 255 255
-0.109128 0.126983 -0.004439 255 255 255
-0.241260 0.044782 0.107899 255 255 255
-0.042686 -0.011911 -0.037244 255 255 255
0.011685 0.168194 0.073918 255 255 255
-0.186303 0.010561 0.036739 255 255 255
-0.248850 0.121018 0.198289 255 255 255
-0.097227 0.004206 0.002122 255 255 255
-0.053638 0.015199 -0.010265 255 255 255
0.183863 -0.160646 0.008887 255 255 255
-0.225404 0.043148 0.092577 255 255 255
-0.046107 -0.040734 -0.003111 255 255 255
-0.005536 -0.139982 -0.006375 255 255 255
0.162016 0.132210 -0.017953 255 255 255
0.044026 0.090161 -0.009606 255 255 255
-0.265918 0.005071 0.283340 255 255 255
-0.092815 -0.039318 -0.000365 255 255 255
0.027002 0.146529 -0.008924 255 255 255
-0.005809 -0.063333 -0.021707 255 255 255
-0.151533 0.040041 -0.019671 255 255 255
0.138680 -0.062117 -0.029105 255 255 255
0.091139 -0.164654 -0.017890 255 255 255
-0.199899 0.075051 0.217744 255 255 255
0.198424 0.099837 -0.025107 255 255 255
0.183018 0.069383 -0.032202 255 255 255
-0.043620 -0.153350 -0.024324 255 255 255
0.146320 -0.076297 -0.012219 255 255 255
-0.209448 0.034188 0.112567 255 255 255
0.076066 -0.000778 -0.018570 255 255 255
0.212142 0.031481 -0.037829 255 255 255
0.041234 -0.029439 -0.055984 255 255 255
-0.251759 -0.073161 0.178670 255 255 255
0.125958 -0.020840 0.030376 255 255 255
-0.209228 0.134077 0.273800 255 255 255
0.026298 -0.118817 -0.054140 255 255 255
0.018669 0.061207 -0.000082 255 255 255
0.016656 0.129693 0.017464 255 255 255
-0.235721 -0.150930 0.230502 255 255 255
0.151837 0.069642 0.002178 255 255 255
-0.073874 0.141104 -0.135524 255 255 255
0.150267 0.103133 -0.043820 255 255 255
-0.050982 0.113926 -0.018965 255 255 255
-0.056876 -0.116314 -0.008346 255 255 255
-0.219548 -0.033531 0.174046 255 255 255
0.067574 0.130910 -0.000383 255 255 255
0.025708 0.015960 -0.043024 255 255 255
-0.145974 -0.000584 0.062648 255 255 255
-0.107241 0.044435 0.021042 255 255 255
-0.001193 0.099660 -0.092329 255 255 255
-0.224935 -0.127907 0.174175 255 255 255
-0.157569 -0.065543 0.120443 255 255 255
-0.127020 0.084397 0.038436 255 255 255
0.170117 0.028045 0.002231 255 255 255
0.065685 0.083505 0.001415 255 255 255
0.006963 -0.133694 -0.044525 255 255 255
-0.241567 -0.050042 0.231852 255 255 255
-0.217936 0.212621 0.260049 255 255 255
-0.244102 0.028828 0.198446 255 255 255
-0.251464 0.044122 0.199681 255 255 255
0.090149 0.135454 -0.016844 255 255 255
-0.036819 0.084504 -0.013216 255 255 255
0.157374 -0.032079 -0.008186 255 255 255
-0.160192 0.189239 0.270256 255 255 255
-0.205036 0.157604 0.275939 255 255 255
-0.213316 0.159978 0.083275 255 255 255
0.117188 0.104750 0.065551 255 255 255
-0.219825 0.108122 0.263201 255 255 255
-0.139160 -0.004419 0.046721 255 255 255
0.144662 0.113644 0.053938 255 255 255
0.003713 0.140841 -0.012098 255 255 255
0.077337 -0.077535 -0.049559 255 255 255
0.203866 0.133641 0.003978 255 255 255
0.144880 -0.113134 0.049682 255 255 255
-0.232431 0.003904 0.094105 255 255 255
-0.070971 0.098849 -0.135517 255 255 255
-0.218514 -0.065316 0.048000 255 255 255
0.095047 -0.194890 -0.021410 255 255 255
-0.019015 0.114446 -0.157141 255 255 255
-0.194572 0.152883 0.233924 255 255 255
-0.105700 -0.080461 -0.019357 255 255 255
-0.012356 0.036529 0.011222 255 255 255
0.141917 -0.111135 0.002924 255 255 255
0.179709 0.031296 -0.033345 255 255 255
-0.066556 0.172618 -0.007432 255 255 255
-0.231129 -0.047813 0.112007 255 255 255
0.037352 0.130611 -0.028641 255 255 255
-0.088995 0.001691 -0.026437 255 255 255
0.079600 0.072262 0.014284 255 255 255
-0.054139 0.146847 -0.003575 255 255 255
0.040188 0.027033 0.000310 255 255 255
-0.253894 0.078367 0.255504 255 255 255
-0.215918 -0.091370 0.176540 255 255 255
0.082382 0.072702 -0.033310 255 255 255
0.129884 0.032591 0.042576 255 255 255
-0.197429 0.130991 0.131200 255 255 255
-0.093472 -0.108701 -0.024139 255 255 255
-0.019022 -0.076199 -0.068616 255 255 255
-0.005568 0.102114 0.002744 255 255 255
-0.090942 0.204870 -0.010086 255 255 255
-0.047052 -0.146757 -0.011434 255 255 255
-0.048599 0.106115 0.073650 255 255 255
0.083775 0.121982 -0.022430 255 255 255
0.123786 0.026087 -0.013539 255 255 255
0.047706 0.133097 -0.010573 255 255 255
-0.094940 -0.093563 -0.017727 255 255 255
0.228916 0.038402 -0.014121 255 255 255
-0.248266 0.111412 0.268083 255 255 255
-0.222021 -0.093112 0.165114 255 255 255
-0.024744 0.154245 0.123511 255 255 255
-0.111116 -0.073437 -0.154281 255 255 255
0.137081 0.102436 -0.010876 255 255 255
0.031341 -0.022172 -0.017559 255 255 255
-0.123834 0.072061 -0.004422 255 255 255
0.128447 -0.107968 0.005903 255 255 255
0.289422 0.033812 -0.014628 255 255 255
0.068126 -0.170905 -0.006883 255 255 255
0.052477 0.058249 -0.028538 255 255 255
0.135889 0.125213 -0.009095 255 255 255
0.071083 -0.081624 -0.008290 255 255 255
0.141379 0.074922 -0.004158 255 255 255
-0.110962 -0.170607 -0.001159 255 255 255
-0.211522 0.070091 0.128883 255 255 255
0.094331 0.170217 -0.003076 255 255 255
-0.189832 0.163443 0.240262 255 255 255
-0.106093 0.121589 0.041492 255 255 255
0.066277 0.056371 -0.097247 255 255 255
-0.107241 0.089835 -0.024178 255 255 255
0.063572 0.165476 0.040502 255 255 255
-0.214991 0.020162 0.133821 255 255 255
0.139005 -0.041044 -0.004587 255 255 255
0.118815 0.138601 0.068986 255 255 255
0.093851 0.004921 -0.212238 255 255 255
-0.139863 -0.084508 0.117265 255 255 255
-0.061758 0.004979 -0.027235 255 255 255
0.166711 -0.071429 -0.007250 255 255 255
-0.257274 -0.162079 0.306565 255 255 255
0.088589 0.033961 0.008871 255 255 255
-0.256179 -0.152036 0.271689 255 255 255
0.118023 -0.074304 -0.006824 255 255 255
0.011086 -0.126401 -0.001470 255 255 255
-0.094476 -0.019375 -0.004711 255 255 255
-0.097009 0.084912 -0.016393 255 255 255
0.003473 0.161095 -0.008503 255 255 255
-0.049677 -0.189829 0.022249 255 255 255
-0.207369 0.183358 0.269129 255 255 255
0.068422 0.152437 0.001159 255 255 255
-0.235078 0.041063 0.114848 255 255 255
0.134374 0.017829 -0.018310 255 255 255
-0.000278 0.158225 -0.006411 255 255 255
0.050603 0.098252 0.038938 255 255 255
0.110659 0.018580 -0.023157 255 255 255
-0.062262 0.130902 -0.010790 255 255 255
0.167270 -0.017843 -0.005506 255 255 255
0.118745 0.123956 -0.009880 255 255 255
-0.233263 -0.062780 0.195011 255 255 255
0.095272 -0.106548 -0.152177 255 255 255
0.220219 -0.099958 -0.008193 255 255 255
0.008545 0.153830 -0.001613 255 255 255
-0.223512 0.086115 0.094966 255 255 255
-0.039636 -0.095876 0.027519 255 255 255
0.079721 0.013852 -0.154469 255 255 255
0.054115 0.109698 -0.093899 255 255 255
-0.210111 0.137285 0.173144 255 255 255
0.162792 -0.072418 0.002654 255 255 255
-0.212068 0.184292 0.276603 255 255 255
0.173297 -0.093862 -0.060694 255 255 255
0.207609 0.099998 -0.020018 255 255 255
0.039849 0.110375 -0.012613 255 255 255
0.124427 0.126050 0.001231 255 255 255
0.079192 -0.110975 -0.108745 255 255 255
0.074526 0.154740 -0.012726 255 255 255
-0.223680 0.026084 0.181386 255 255 255
-0.220049 0.022948 0.082167 255 255 255
-0.169752 0.016051 0.050636 255 255 255
0.098298 -0.022885 0.002377 255 255 255
-0.253208 0.004651 0.238325 255 255 255
-0.229476 -0.155848 0.288494 255 255 255
-0.041304 -0.156705 -0.136771 255 255 255
-0.258083 0.019245 0.191698 255 255 255
0.209177 -0.034527 0.014898 255 255 255
0.019545 -0.109486 0.003929 255 255 255
-0.047997 -0.134949 -0.002906 255 255 255
-0.176547 0.005807 -0.002594 255 255 255
-0.042019 0.156687 0.016301 255 255 255
0.090490 0.120738 0.044135 255 255 255
-0.259143 -0.026272 0.300346 255 255 255
0.020134 0.036937 -0.043811 255 255 255
0.004097 -0.077452 -0.011454 255 255 255
0.015519 -0.000532 -0.003714 255 255 255
0.173149 0.026508 -0.224652 255 255 255
-0.206929 0.188210 0.295134 255 255 255
0.050032 0.019168 -0.052064 255 255 255
0.045515 -0.163161 -0.026058 255 255 255
-0.198598 0.189389 -0.011166 255 255 255
-0.183180 -0.050778 0.088573 255 255 255
0.087594 0.081091 0.002633 255 255 255
-0.211513 -0.196050 0.291624 255 255 255
0.032784 0.090410 -0.007163 255 255 255
0.022825 0.044219 0.002144 255 255 255
-0.056107 0.033637 0.031541 255 255 255
-0.210537 -0.180540 0.310160 255 255 255
-0.248139 0.041478 0.321647 255 255 255
0.196955 0.013616 0.000753 255 255 255
-0.028931 -0.101388 0.038455 255 255 255
-0.171640 0.160953 0.188415 255 255 255
-0.144105 -0.062715 -0.001714 255 255 255
0.121630 -0.138834 -0.021829 255 255 255
0.072270 -0.055077 -0.058129 255 255 255
0.085863 0.023176 -0.006424 255 255 255
-0.042874 0.115698 0.020314 255 255 255
0.071368 0.095416 -0.007863 255 255 255
0.036635 -0.095372 -0.010059 255 255 255
0.034070 0.114348 0.014029 255 255 255
0.012406 0.108538 -0.098461 255 255 255
0.127240 0.067168 0.056093 255 255 255
-0.135951 -0.101173 0.031160 255 255 255
-0.192934 -0.141662 0.138521 255 255 255
-0.172064 0.004010 -0.003224 255 255 255
0.074417 0.126596 -0.001549 255 255 255
-0.250060 0.031484 0.155879 255 255 255
-0.224024 -0.018666 0.138491 255 255 255
-0.024380 0.144354 -0.019883 255 255 255
-0.001259 0.012753 -0.044962 255 255 255
0.045168 -0.084469 0.007033 255 255 255
-0.151954 -0.125033 0.002549 255 255 255
0.112369 -0.116833 -0.017279 255 255 255
-0.088865 0.161446 0.040240 255 255 255
-0.041258 0.101722 -0.010564 255 255 255
0.054080 0.112286 -0.023651 255 255 255
-0.071594 0.092461 0.033668 255 255 255
-0.205481 0.029753 0.108758 255 255 255
-0.224287 -0.015589 -0.002389 255 255 255
-0.121536 0.166095 -0.022526 255 255 255
-0.101145 -0.148325 -0.042003 255 255 255
0.065181 0.026186 -0.024102 255 255 255
0.030682 -0.116895 -0.020194 255 255 255
0.019106 0.125816 0.066410 255 255 255
-0.045438 0.082328 -0.016530 255 255 255
0.078365 -0.091473 -0.204452 255 255 255
0.244204 0.011986 -0.014542 255 255 255
-0.222880 -0.165281 0.336418 255 255 255
0.102272 -0.073651 0.028004 255 255 255
0.018283 -0.068084 -0.002712 255 255 255
-0.072609 -0.116808 0.001248 255 255 255
-0.124118 -0.095896 -0.138915 255 255 255
-0.041035 0.027024 0.038380 255 255 255
0.153021 0.000470 -0.017707 255 255 255
0.219476 -0.068508 -0.005237 255 255 255
-0.222202 0.028203 0.145401 255 255 255
0.117212 -0.035863 -0.181578 255 255 255
-0.171550 0.098194 0.022599 255 255 255
-0.108973 -0.041315 -0.008019 255 255 255
0.210860 -0.014881 -0.065839 255 255 255
-0.030407 -0.043107 -0.006136 255 255 255
-0.037665 -0.104930 -0.024874 255 255 255
-0.028469 0.117488 -0.003873 255 255 255
0.078266 0.074202 -0.037641 255 255 255
-0.204218 0.132583 0.155943 255 255 255
0.231891 -0.041753 -0.044978 255 255 255
0.178777 0.009127 -0.004153 255 255 255
-0.183113 -0.129215 0.202231 255 255 255
-0.085947 0.169257 0.004344 255 255 255
0.097041 -0.073248 -0.032631 255 255 255
0.074639 -0.050404 -0.006748 255 255 255
-0.278846 -0.080699 0.292020 255 255 255
-0.229964 0.113407 0.033619 255 255 255
-0.142802 -0.081085 -0.226587 255 255 255
-0.135178 -0.114742 -0.011999 255 255 255
-0.260520 -0.021352 0.215787 255 255 255
-0.096351 0.016523 -0.005940 255 255 255
0.075700 -0.134356 -0.008749 255 255 255
0.105942 -0.008343 0.000983 255 255 255
-0.016268 -0.041182 0.011881 255 255 255
-0.036930 0.119053 0.088777 255 255 255
-0.139388 0.048992 -0.030170 255 255 255
-0.186752 0.172556 0.289663 255 255 255
-0.244655 0.016931 0.179034 255 255 255
0.154855 -0.093760 -0.066973 255 255 255
-0.058949 0.155343 -0.010951 255 255 255
-0.010195 0.091163 0.006574 255 255 255
-0.241155 -0.136888 0.217804 255 255 255
-0.013446 -0.101990 -0.007732 255 255 255
-0.052687 0.125701 -0.007140 255 255 255
0.105182 -0.043832 -0.016664 255 255 255
-0.090459 -0.018655 -0.006671 255 255 255
0.217329 -0.116608 -0.007498 255 255 255
0.009020 0.124872 -0.017837 255 255 255
0.042194 0.116812 -0.023866 255 255 255
-0.193761 -0.094293 0.082320 255 255 255
0.125212 -0.144086 -0.040805 255 255 255
0.072516 -0.107224 -0.011289 255 255 255
0.174215 0.018996 -0.180625 255 255 255
0.212758 0.117408 -0.032287 255 255 255
0.117477 -0.125821 -0.023522 255 255 255
0.157816 0.099689 -0.018649 255 255 255
-0.035929 -0.114496 -0.009990 255 255 255
-0.102892 0.034208 -0.002424 255 255 255
0.210340 -0.043191 -0.041295 255 255 255
-0.099238 0.075651 -0.017876 255 255 255
0.190322 -0.047578 -0.032162 255 255 255
-0.003383 -0.185694 -0.067399 255 255 255
0.108362 -0.144885 -0.040131 255 255 255
0.149952 0.037897 0.014759 255 255 255
0.126703 0.112548 -0.052058 255 255 255
0.002976 -0.098906 0.005332 255 255 255
-0.238218 -0.093746 0.262458 255 255 255
-0.212091 0.117987 0.298883 255 255 255
0.048688 -0.095836 0.021738 255 255 255
0.052958 0.119872 0.001778 255 255 255
0.203958 0.023159 -0.016054 255 255 255
-0.214324 0.001573 0.017231 255 255 255
-0.251665 -0.030237 0.275219 255 255 255
0.040096 -0.016029 -0.061988 255 255 255
-0.063940 0.020713 -0.012322 255 255 255
-0.149383 -0.075800 0.015828 255 255 255
0.102535 0.014600 0.003475 255 255 255
-0.052135 -0.118478 -0.001896 255 255 255
-0.229718 0.176530 0.231648 255 255 255
-0.015398 -0.104318 -0.009513 255 255 255
0.212656 0.014366 -0.015338 255 255 255
-0.032580 -0.034499 -0.014203 255 255 255
-0.247926 0.045251 0.193146 255 255 255
-0.065533 0.194238 -0.017825 255 255 255
-0.007156 -0.164994 -0.036109 255 255 255
0.198619 0.131789 0.013956 255 255 255
-0.127980 -0.055278 -0.016662 255 255 255
0.261828 0.030282 -0.029113 255 255 255
-0.221943 0.078210 0.102684 255 255 255
-0.155803 0.038384 0.114879 255 255 255
0.057770 0.057617 -0.031034 255 255 255
-0.212433 0.068562 0.034135 255 255 255
0.203882 -0.038546 0.057385 255 255 255
-0.040786 0.145370 -0.004421 255 255 255
-0.183638 -0.048396 0.005063 255 255 255
-0.117358 -0.008955 -0.028129 255 255 255
0.109916 -0.132475 -0.123304 255 255 255
0.044938 0.064310 -0.007082 255 255 255
-0.098593 0.135888 0.216912 255 255 255
-0.227515 0.053410 0.142577 255 255 255
-0.217647 0.041567 0.161641 255 255 255
0.038023 -0.066156 0.002058 255 255 255
-0.077349 0.009574 -0.008203 255 255 255
-0.104052 -0.113590 0.002924 255 255 255
-0.237067 0.035730 0.208837 255 255 255
-0.027049 -0.073290 -0.024978 255 255 255
-0.055333 -0.171197 -0.007930 255 255 255
0.088895 0.106032 0.001604 255 255 255
0.209294 0.053769 -0.018444 255 255 255
-0.158804 -0.110414 -0.013147 255 255 255
0.070418 0.130334 -0.015097 255 255 255
0.073260 0.084462 -0.018533 255 255 255
-0.033829 -0.083082 0.055837 255 255 255
-0.117369 -0.076548 -0.018827 255 255 255
-0.208479 -0.132117 0.225849 255 255 255
-0.070690 0.083249 -0.008252 255 255 255
-0.231798 0.008357 0.164514 255 255 255
-0.105564 -0.000988 -0.015412 255 255 255
-0.118105 -0.116672 0.088618 255 255 255
-0.166442 -0.105376 0.022838 255 255 255
-0.145342 -0.076482 -0.253058 255 255 255
-0.251242 -0.105600 0.274520 255 255 255
0.021227 -0.125216 0.002768 255 255 255
0.294359 -0.098635 0.003732 255 255 255
-0.121354 0.002512 -0.004129 255 255 255
-0.178366 -0.179306 0.175923 255 255 255
0.207913 -0.047200 -0.076742 255 255 255
-0.013981 -0.021046 -0.003614 255 255 255
0.139669 -0.105680 0.005744 255 255 255
0.151304 -0.124347 0.000482 255 255 255
0.061386 0.074278 -0.003649 255 255 255
0.122307 0.030397 -0.000355 255 255 255
0.100155 0.152062 -0.010808 255 255 255
-0.105065 0.125676 0.008780 255 255 255
-0.101460 -0.054659 0.066178 255 255 255
-0.064089 -0.082082 -0.011634 255 255 255
-0.169411 0.166931 0.114393 255 255 255
0.267826 0.020448 -0.012180 255 255 255
0.217502 -0.042648 -0.064021 255 255 255
0.182393 0.052518 -0.013225 255 255 255
-0.161514 0.171687 -0.018540 255 255 255
-0.079817 -0.092456 -0.008244 255 255 255
0.124564 -0.138328 -0.007089 255 255 255
0.058150 -0.091311 -0.026152 255 255 255
0.069688 0.030903 -0.028168 255 255 255
0.048846 -0.116910 -0.018913 255 255 255
-0.152627 0.091951 0.088776 255 255 255
0.151396 0.131237 -0.030296 255 255 255
-0.215262 0.013055 0.049804 255 255 255
-0.144777 -0.113115 0.015512 255 255 255
0.203340 0.062947 -0.040618 255 255 255
-0.002299 0.069821 0.000876 255 255 255
0.057334 0.103361 -0.048964 255 255 255
-0.069964 0.088927 -0.008271 255 255 255
-0.187478 0.064767 -0.270974 255 255 255
0.015511 -0.007556 -0.042557 255 255 255
-0.023596 0.138684 -0.016942 255 255 255
0.147771 -0.052717 -0.044027 255 255 255
-0.063249 0.062676 0.098502 255 255 255
0.084409 0.171512 -0.007575 255 255 255
0.102389 0.033815 -0.006639 255 255 255
-0.209129 0.211926 0.241800 255 255 255
-0.289012 -0.000286 0.300741 255 255 255
0.110207 -0.062229 -0.011885 255 255 255
0.058531 0.086054 -0.031615 255 255 255
-0.063773 -0.039109 -0.005462 255 255 255
-0.068419 -0.188399 -0.021976 255 255 255
-0.207122 -0.194110 0.297039 255 255 255
-0.193863 0.053631 0.152158 255 255 255
0.071353 -0.122385 -0.041913 255 255 255
0.070565 0.116620 0.007570 255 255 255
-0.192374 -0.160089 0.156191 255 255 255
0.135279 0.102112 -0.041388 255 255 255
-0.165293 -0.070323 0.039623 255 255 255
0.223700 0.071226 -0.053367 255 255 255
0.154373 0.031190 -0.033480 255 255 255
0.100578 0.060414 -0.006016 255 255 255
-0.205538 -0.034027 0.091427 255 255 255
0.005407 0.011206 -0.005110 255 255 255
0.165521 0.007433 -0.027548 255 255 255
-0.002647 0.064946 -0.004454 255 255 255
-0.184812 0.050095 0.001351 255 255 255
-0.225178 -0.070448 0.188374 255 255 255
-0.227455 0.046187 0.218667 255 255 255
0.021830 -0.148931 -0.029448 255 255 255
-0.240796 -0.022757 0.077911 255 255 255
-0.063741 0.170014 -0.011424 255 255 255
-0.226969 0.055559 0.324449 255 255 255
0.155269 -0.025831 -0.011253 255 255 255
0.079676 0.053659 -0.015955 255 255 255
0.104005 0.041846 -0.003091 255 255 255
-0.205516 0.046438 0.174373 255 255 255
0.039031 -0.229246 -0.011195 255 255 255
-0.079607 0.125575 -0.004453 255 255 255
0.047567 -0.102925 -0.000025 255 255 255
0.047224 0.138317 -0.012352 255 255 255
-0.158826 -0.016575 0.013918 255 255 255
-0.229373 0.139091 0.255012 255 255 255
-0.044738 -0.051263 -0.012613 255 255 255
0.032518 0.094621 0.023762 255 255 255
0.160518 -0.061745 -0.011639 255 255 255
-0.208953 0.111934 0.192653 255 255 255
-0.014501 -0.104504 -0.033163 255 255 255
0.091185 -0.005055 -0.064776 255 255 255
-0.120210 0.090798 -0.028055 255 255 255
-0.239470 0.160461 0.297972 255 255 255
0.038921 -0.175437 -0.007590 255 255 255
0.091390 0.163356 -0.013367 255 255 255
-0.233885 -0.032958 0.101708 255 255 255
0.240610 -0.042627 -0.007667 255 255 255
0.006151 -0.041125 -0.003554 255 255 255
0.032217 0.121192 -0.027964 255 255 255
0.145441 -0.190954 -0.018817 255 255 255
0.271664 -0.079979 -0.066277 255 255 255
0.167491 -0.070037 -0.003324 255 255 255
-0.188190 -0.081494 0.048981 255 255 255
-0.242671 0.004958 0.157247 255 255 255
0.179920 0.128195 -0.016001 255 255 255
-0.240631 0.008785 0.158124 255 255 255
0.061968 0.161177 -0.044163 255 255 255
0.089187 -0.053050 0.031885 255 255 255
0.079430 0.181589 0.010723 255 255 255
0.058797 0.158337 -0.007681 255 255 255
-0.052255 -0.159981 -0.006320 255 255 255
-0.076629 0.061894 -0.004181 255 255 255
-0.038243 0.124197 -0.006103 255 255 255
0.198382 0.039493 -0.022453 255 255 255
-0.086548 0.137137 -0.039320 255 255 255
-0.215976 0.099607 0.142080 255 255 255
-0.208577 -0.106038 0.266969 255 255 255
0.107779 0.035342 -0.003555 255 255 255
-0.003058 0.018883 0.057153 255 255 255
-0.001589 -0.085971 -0.004939 255 255 255
-0.038328 0.151151 0.023986 255 255 255
-0.028414 0.018986 0.035273 255 255 255
-0.029167 0.100665 -0.155725 255 255 255
-0.032011 -0.113509 0.007688 255 255 255
-0.078870 -0.160288 -0.009856 255 255 255
0.203793 0.105400 -0.039678 255 255 255
-0.026762 -0.128510 -0.010382 255 255 255
-0.217312 -0.084913 0.216192 255 255 255
-0.224990 0.105677 0.175629 255 255 255
0.175058 -0.035534 0.000720 255 255 255
0.067935 0.136474 -0.017455 255 255 255
-0.024125 -0.121016 0.031729 255 255 255
-0.116313 -0.077860 0.001355 255 255 255
-0.237305 -0.009369 0.222974 255 255 255
-0.100366 -0.035573 0.064675 255 255 255
0.089429 0.043140 -0.002565 255 255 255
-0.240773 -0.040844 0.125876 255 255 255
0.120482 -0.101479 0.002689 255 255 255
-0.060089 0.080462 0.019587 255 255 255
0.137750 0.084087 0.001580 255 255 255
-0.020577 -0.182873 -0.046302 255 255 255
-0.157743 -0.065821 -0.008696 255 255 255
0.215911 0.125388 0.028335 255 255 255
0.076694 -0.124054 -0.006442 255 255 255
-0.064471 0.124134 -0.190277 255 255 255
-0.219371 -0.166767 0.318783 255 255 255
-0.199019 -0.158854 0.270724 255 255 255
-0.043849 0.088265 -0.027724 255 255 255
-0.235176 -0.051728 0.274814 255 255 255
0.138910 0.066845 -0.019099 255 255 255
0.106098 0.119879 -0.021717 255 255 255
0.113309 0.008528 0.009716 255 255 255
0.107474 0.130976 -0.027611 255 255 255
-0.033689 -0.116816 0.018220 255 255 255
-0.073709 0.177009 -0.011980 255 255 255
-0.064749 0.127233 0.065532 255 255 255
-0.089973 0.078351 0.032737 255 255 255
0.131809 0.095019 -0.030441 255 255 255
0.163925 -0.038803 -0.074134 255 255 255
-0.137152 0.094147 0.000877 255 255 255
