ply
    		format ascii 1.0
    		element vertex 2048
    		property float x
    		property float y
    		property float z
    		property uchar red
    		property uchar green
    		property uchar blue
    		end_header
-0.199376 -0.138303 -0.009360 255 255 255
-0.148624 -0.099789 -0.035044 255 255 255
-0.049993 0.156991 -0.003643 255 255 255
-0.109560 -0.158647 0.101337 255 255 255
-0.031628 -0.138370 -0.028656 255 255 255
-0.008657 -0.157256 -0.061600 255 255 255
-0.217109 -0.202402 0.250651 255 255 255
0.098345 0.084615 -0.010603 255 255 255
-0.128373 -0.068278 0.019278 255 255 255
0.077019 -0.027642 -0.019699 255 255 255
0.245014 -0.043257 -0.009294 255 255 255
-0.093708 -0.157276 -0.011614 255 255 255
0.214872 0.161642 -0.093503 255 255 255
0.273766 -0.013882 -0.072794 255 255 255
-0.230101 0.029944 0.162390 255 255 255
0.121394 0.162814 -0.038197 255 255 255
0.109927 0.009064 -0.017503 255 255 255
0.085049 0.216911 -0.011216 255 255 255
-0.223105 0.113516 -0.001604 255 255 255
0.102623 -0.145328 -0.016868 255 255 255
-0.209865 -0.126850 0.217700 255 255 255
-0.025233 -0.045214 -0.018874 255 255 255
0.239563 0.086527 -0.005321 255 255 255
-0.082142 0.004208 -0.039884 255 255 255
0.174700 0.118308 -0.017392 255 255 255
-0.184910 -0.224180 0.245318 255 255 255
0.107089 -0.141757 -0.057450 255 255 255
0.025642 0.173618 -0.013867 255 255 255
0.011204 0.039458 -0.035514 255 255 255
0.118479 -0.130534 -0.011073 255 255 255
0.104134 -0.068904 -0.016687 255 255 255
0.202293 -0.133732 -0.158086 255 255 255
-0.221742 0.014340 0.169885 255 255 255
-0.167986 -0.093093 -0.005119 255 255 255
-0.095580 0.015947 -0.011232 255 255 255
-0.262113 0.136178 0.292839 255 255 255
0.234631 -0.061015 -0.010056 255 255 255
0.258096 -0.175760 -0.026151 255 255 255
-0.169324 -0.105677 -0.022254 255 255 255
-0.085804 0.105795 -0.032015 255 255 255
-0.279666 0.126197 0.280887 255 255 255
0.240312 -0.148215 -0.060755 255 255 255
-0.067838 -0.105786 -0.047965 255 255 255
0.292959 -0.010842 -0.028095 255 255 255
-0.227649 -0.189604 0.300325 255 255 255
-0.015541 0.095178 -0.079748 255 255 255
0.061794 -0.126744 -0.015464 255 255 255
-0.275353 0.087689 0.280429 255 255 255
0.023652 -0.083412 -0.201721 255 255 255
0.254665 -0.001821 -0.005084 255 255 255
0.041115 -0.194418 -0.030169 255 255 255
-0.250171 -0.186105 0.277911 255 255 255
-0.102787 -0.062160 0.002082 255 255 255
-0.012993 -0.115526 -0.029351 255 255 255
0.187108 -0.106064 -0.021069 255 255 255
-0.092367 -0.079713 0.009238 255 255 255
-0.300798 -0.109208 0.301261 255 255 255
0.202789 -0.119848 -0.004223 255 255 255
0.170735 0.148065 -0.018798 255 255 255
0.006660 0.126575 -0.022431 255 255 255
-0.002519 0.142295 -0.027699 255 255 255
-0.110214 0.098489 -0.061838 255 255 255
0.123237 0.190416 -0.000795 255 255 255
-0.215492 -0.105740 0.096721 255 255 255
-0.098384 0.006660 -0.034833 255 255 255
-0.294441 -0.027151 0.291447 255 255 255
0.121277 -0.136546 -0.019787 255 255 255
0.159383 0.173699 -0.009329 255 255 255
-0.100276 -0.173977 -0.004606 255 255 255
0.040376 -0.135559 -0.023670 255 255 255
0.198299 0.130441 -0.100640 255 255 255
0.251540 -0.098393 -0.027704 255 255 255
-0.196100 0.200504 0.221855 255 255 255
0.074379 -0.000555 -0.015992 255 255 255
0.201017 -0.068403 -0.009043 255 255 255
0.082512 0.104140 -0.013476 255 255 255
-0.230776 -0.088638 0.169014 255 255 255
0.084200 -0.015737 -0.012918 255 255 255
-0.248167 -0.032032 0.202227 255 255 255
0.115614 -0.163864 -0.009776 255 255 255
-0.254028 -0.036695 0.135313 255 255 255
-0.110487 -0.149944 0.004886 255 255 255
-0.001058 -0.197283 -0.061523 255 255 255
-0.124984 -0.107892 -0.021043 255 255 255
0.125971 -0.138573 -0.033195 255 255 255
-0.012702 -0.055685 -0.025371 255 255 255
-0.017842 0.194161 -0.017463 255 255 255
0.246970 -0.083466 -0.013472 255 255 255
-0.106172 -0.131646 -0.037528 255 255 255
0.174830 0.087168 -0.014183 255 255 255
-0.116890 -0.124344 -0.053741 255 255 255
-0.046896 -0.172146 -0.012903 255 255 255
0.214456 0.025794 -0.006131 255 255 255
-0.178063 -0.218803 0.253168 255 255 255
0.137848 0.165815 -0.216222 255 255 255
-0.183049 0.059672 -0.061201 255 255 255
0.101907 0.112245 -0.021048 255 255 255
0.277168 0.073795 -0.015897 255 255 255
0.113524 -0.204914 -0.014771 255 255 255
-0.232449 -0.047891 0.212272 255 255 255
0.086349 -0.127575 -0.012532 255 255 255
0.226464 0.101738 -0.011428 255 255 255
0.264169 -0.124150 -0.034629 255 255 255
0.033903 -0.090494 -0.036522 255 255 255
-0.269941 -0.027966 0.248873 255 255 255
0.238128 -0.062766 -0.000405 255 255 255
-0.140026 0.147751 0.073198 255 255 255
-0.033595 -0.099063 -0.121301 255 255 255
0.036814 0.153811 -0.020779 255 255 255
-0.235304 0.156574 0.231509 255 255 255
-0.210893 0.057156 -0.009678 255 255 255
0.219038 -0.148214 -0.017888 255 255 255
0.152641 0.145681 0.001529 255 255 255
0.111788 -0.132546 -0.005622 255 255 255
-0.173676 0.160146 -0.029353 255 255 255
0.179596 0.136539 -0.017841 255 255 255
0.272062 0.102690 -0.017982 255 255 255
-0.004237 0.053027 -0.050294 255 255 255
0.023521 -0.152784 -0.000410 255 255 255
0.001737 0.126163 -0.039745 255 255 255
0.117924 -0.128551 -0.015502 255 255 255
-0.275571 0.151907 0.259430 255 255 255
-0.264526 0.029576 0.224856 255 255 255
-0.285508 0.091188 0.268044 255 255 255
0.182237 -0.177569 -0.012989 255 255 255
-0.172238 0.129010 -0.003352 255 255 255
-0.207491 0.098490 -0.042608 255 255 255
0.136169 0.104687 -0.162586 255 255 255
0.200141 0.009135 -0.035104 255 255 255
0.151628 -0.104564 -0.045641 255 255 255
0.217528 0.151583 -0.096151 255 255 255
-0.232728 0.009359 0.102439 255 255 255
0.204401 0.086462 -0.182195 255 255 255
-0.145898 0.098737 -0.017688 255 255 255
0.212735 0.011980 -0.022111 255 255 255
0.235970 -0.064355 -0.021324 255 255 255
-0.074956 -0.078985 -0.035614 255 255 255
0.019589 -0.090997 -0.041728 255 255 255
0.172313 0.156699 -0.011839 255 255 255
-0.244600 0.047425 0.205255 255 255 255
0.091408 -0.140903 -0.070289 255 255 255
0.222149 -0.096355 -0.021927 255 255 255
0.189811 0.075434 -0.002936 255 255 255
-0.004915 -0.006162 -0.031220 255 255 255
-0.300019 0.076299 0.300977 255 255 255
-0.175932 0.141232 0.174515 255 255 255
0.138788 -0.146605 -0.015442 255 255 255
0.020860 0.175300 -0.040770 255 255 255
0.264275 0.075027 -0.012376 255 255 255
0.181752 -0.022987 -0.006651 255 255 255
-0.053270 0.052076 -0.026518 255 255 255
-0.037851 -0.110076 -0.041936 255 255 255
0.123411 -0.206510 -0.017726 255 255 255
-0.059420 -0.162146 -0.063737 255 255 255
0.162604 -0.043366 -0.022168 255 255 255
0.064260 0.158931 -0.022886 255 255 255
-0.226015 0.161909 0.232216 255 255 255
0.143623 -0.150704 -0.033933 255 255 255
0.022701 0.158286 -0.040962 255 255 255
-0.265778 -0.032903 0.273998 255 255 255
0.107360 -0.034915 -0.020082 255 255 255
-0.122863 0.017494 -0.021824 255 255 255
-0.048102 -0.154177 0.036463 255 255 255
-0.168984 -0.170177 0.235232 255 255 255
0.008311 0.077047 -0.029325 255 255 255
0.185399 -0.117858 -0.070261 255 255 255
-0.055776 0.074662 -0.272558 255 255 255
0.167617 -0.166335 -0.007882 255 255 255
0.198368 0.039773 -0.016524 255 255 255
0.066427 0.174257 0.030431 255 255 255
-0.133361 0.191800 0.142218 255 255 255
0.106937 -0.106447 -0.021086 255 255 255
0.176811 0.126030 0.002623 255 255 255
-0.061146 0.110514 -0.028462 255 255 255
0.141715 0.018848 -0.007474 255 255 255
0.221863 -0.077348 -0.021784 255 255 255
-0.008761 0.178965 -0.004031 255 255 255
-0.020647 -0.099800 -0.057179 255 255 255
-0.067355 -0.117293 -0.004161 255 255 255
-0.158274 -0.028469 -0.041226 255 255 255
0.119956 0.194549 -0.000566 255 255 255
-0.251872 0.069660 0.215053 255 255 255
0.043340 -0.186996 -0.026451 255 255 255
0.248170 0.144363 -0.054800 255 255 255
0.055304 0.189689 -0.005890 255 255 255
-0.172323 -0.211900 0.257853 255 255 255
-0.235567 0.117726 0.252290 255 255 255
0.286405 0.204796 -0.024810 255 255 255
-0.058430 -0.170760 -0.026239 255 255 255
-0.013254 0.075520 -0.025468 255 255 255
0.237354 0.120188 -0.040323 255 255 255
0.179751 -0.121829 -0.014938 255 255 255
0.273642 0.024382 -0.027694 255 255 255
-0.041466 -0.029883 -0.025136 255 255 255
0.175865 -0.049308 -0.021032 255 255 255
0.083078 -0.177205 -0.011015 255 255 255
-0.186484 0.140217 0.171356 255 255 255
-0.168679 -0.049937 0.081010 255 255 255
-0.017357 0.202887 0.009393 255 255 255
-0.199870 -0.118477 0.001972 255 255 255
-0.219591 0.140760 0.022404 255 255 255
0.143436 0.017605 -0.003549 255 255 255
-0.155902 -0.057333 -0.030423 255 255 255
-0.060198 0.162409 -0.021324 255 255 255
-0.162529 0.218042 0.154570 255 255 255
-0.064135 -0.159214 -0.024132 255 255 255
-0.252028 -0.107225 0.292072 255 255 255
0.142728 -0.156368 -0.024650 255 255 255
-0.057470 0.134031 -0.049227 255 255 255
-0.246525 -0.076794 0.197054 255 255 255
-0.155876 -0.109832 -0.042879 255 255 255
0.267283 0.042540 -0.005475 255 255 255
-0.056667 -0.034656 -0.218528 255 255 255
-0.276779 -0.016535 0.319879 255 255 255
0.174783 -0.147895 -0.020782 255 255 255
-0.285399 0.161383 0.287683 255 255 255
0.031918 0.206222 -0.019436 255 255 255
0.006656 -0.135059 -0.029941 255 255 255
-0.132916 0.090307 -0.044276 255 255 255
0.225982 -0.106837 -0.062237 255 255 255
0.261344 -0.166865 -0.035363 255 255 255
-0.173845 -0.008363 -0.030052 255 255 255
0.206842 -0.108560 -0.096148 255 255 255
0.095060 -0.104532 -0.097524 255 255 255
0.249395 -0.039605 -0.018326 255 255 255
0.251403 -0.095590 -0.228509 255 255 255
-0.057154 -0.029618 -0.072988 255 255 255
0.101338 0.060801 -0.029352 255 255 255
-0.037056 0.092830 -0.023152 255 255 255
0.229061 -0.011377 -0.042842 255 255 255
0.274284 0.047442 -0.019594 255 255 255
-0.090695 -0.054613 -0.029253 255 255 255
0.062230 0.174668 -0.010072 255 255 255
-0.008404 0.165048 -0.022322 255 255 255
0.146853 -0.135228 -0.010945 255 255 255
0.142618 0.194039 -0.134860 255 255 255
-0.074853 0.042154 -0.045484 255 255 255
0.237988 0.108110 -0.016454 255 255 255
0.029839 0.162832 -0.054204 255 255 255
-0.002426 0.024060 -0.020901 255 255 255
-0.145907 0.083020 -0.044183 255 255 255
0.200775 0.079473 -0.014932 255 255 255
0.111654 0.213215 -0.050353 255 255 255
-0.140199 -0.123564 -0.001870 255 255 255
0.145415 0.096319 -0.184219 255 255 255
0.038442 -0.149465 -0.026291 255 255 255
-0.090077 -0.121667 -0.030373 255 255 255
-0.056576 0.046244 -0.027831 255 255 255
-0.037457 0.169554 -0.053237 255 255 255
0.185756 -0.145747 -0.049432 255 255 255
0.100652 0.159429 -0.008719 255 255 255
0.216674 -0.080098 -0.010954 255 255 255
-0.149450 0.108911 -0.032137 255 255 255
-0.017407 -0.190693 0.005895 255 255 255
0.300327 0.044590 -0.034079 255 255 255
-0.057322 0.130466 -0.034421 255 255 255
-0.252757 -0.032772 0.249372 255 255 255
0.007816 0.160861 -0.003165 255 255 255
0.123642 0.091037 -0.216048 255 255 255
-0.091185 -0.098866 -0.238394 255 255 255
-0.128461 0.176377 -0.048999 255 255 255
-0.167172 -0.147922 0.053736 255 255 255
0.032623 0.166897 -0.022444 255 255 255
0.144547 0.064415 0.001798 255 255 255
-0.045109 -0.111346 -0.233885 255 255 255
-0.185715 -0.070609 -0.012451 255 255 255
0.238497 -0.050431 -0.037714 255 255 255
-0.025071 -0.096602 -0.100727 255 255 255
-0.235623 -0.095972 0.234650 255 255 255
-0.248932 -0.103457 0.227950 255 255 255
-0.002806 -0.171101 -0.020133 255 255 255
-0.068559 -0.125901 -0.032953 255 255 255
-0.215737 0.054947 0.139091 255 255 255
-0.037360 0.176925 -0.022680 255 255 255
-0.034742 -0.162463 -0.043304 255 255 255
-0.149366 0.008933 -0.077355 255 255 255
0.247685 -0.020875 -0.011606 255 255 255
0.124445 -0.014364 -0.046008 255 255 255
0.239602 -0.005917 -0.025681 255 255 255
-0.164805 -0.234283 0.225061 255 255 255
-0.189996 -0.015998 0.086268 255 255 255
0.003095 -0.166439 -0.020812 255 255 255
-0.151571 0.186893 0.181086 255 255 255
0.277935 0.031202 -0.050365 255 255 255
0.229400 -0.076335 -0.035820 255 255 255
0.247980 0.050850 -0.025930 255 255 255
0.265420 0.099411 -0.028800 255 255 255
0.036001 0.139171 -0.018376 255 255 255
0.090988 0.145344 -0.016025 255 255 255
0.242525 0.004430 -0.019789 255 255 255
0.270952 -0.087937 -0.080078 255 255 255
0.100203 -0.044646 -0.006732 255 255 255
0.165548 0.140046 -0.003117 255 255 255
0.038808 -0.163579 -0.017717 255 255 255
0.209428 -0.116075 -0.020884 255 255 255
-0.186965 -0.179788 0.251032 255 255 255
0.123271 0.110004 -0.012994 255 255 255
0.069543 -0.011783 -0.020621 255 255 255
-0.165140 0.134258 0.012734 255 255 255
-0.135738 -0.103624 -0.040353 255 255 255
0.047879 0.161982 -0.048690 255 255 255
-0.181009 0.022305 -0.041818 255 255 255
0.126541 0.092776 -0.104396 255 255 255
0.127992 -0.024599 -0.018556 255 255 255
0.267666 0.093436 -0.026266 255 255 255
-0.232780 0.087106 0.191383 255 255 255
0.093080 -0.125700 -0.014654 255 255 255
-0.064351 -0.188356 0.023621 255 255 255
-0.259086 -0.090315 0.327038 255 255 255
0.044884 -0.074843 -0.024052 255 255 255
0.154712 0.172668 -0.036615 255 255 255
-0.226901 0.069371 0.089171 255 255 255
-0.104383 0.184533 0.078917 255 255 255
0.177831 0.167079 -0.001147 255 255 255
0.269103 -0.132806 0.008945 255 255 255
-0.026312 0.141409 0.008237 255 255 255
-0.165119 -0.152790 0.046406 255 255 255
-0.090805 -0.100051 -0.023756 255 255 255
0.205296 -0.034202 -0.024750 255 255 255
0.131599 0.043683 -0.008126 255 255 255
0.223568 -0.132904 -0.029066 255 255 255
0.088486 0.189684 -0.003158 255 255 255
0.201965 -0.193704 -0.022491 255 255 255
-0.175527 0.018680 -0.042021 255 255 255
-0.049124 0.000617 -0.027840 255 255 255
0.149205 0.149099 -0.044031 255 255 255
0.216902 -0.040115 -0.028067 255 255 255
-0.083610 -0.162892 0.002020 255 255 255
0.190924 0.056324 -0.019696 255 255 255
-0.132487 -0.157258 -0.026191 255 255 255
-0.103911 0.107746 -0.001330 255 255 255
-0.260875 0.093722 0.249156 255 255 255
-0.123221 -0.122708 0.008623 255 255 255
-0.205229 -0.122372 0.094294 255 255 255
0.051103 0.085248 -0.029538 255 255 255
-0.279377 -0.148654 0.255433 255 255 255
0.195349 0.103331 -0.010111 255 255 255
0.173878 -0.106946 -0.045237 255 255 255
-0.256027 0.104462 0.221985 255 255 255
0.126802 0.104118 -0.018675 255 255 255
0.095122 0.156238 -0.015359 255 255 255
0.221903 -0.028131 -0.011543 255 255 255
-0.127980 0.051674 -0.033275 255 255 255
-0.212815 0.196410 0.216530 255 255 255
0.106854 -0.060957 -0.155758 255 255 255
-0.026887 0.142036 -0.021039 255 255 255
0.127792 -0.172918 -0.030462 255 255 255
0.053693 0.196621 -0.001073 255 255 255
0.148148 0.202945 -0.006176 255 255 255
-0.024691 0.160207 -0.029746 255 255 255
-0.049388 0.128471 -0.172213 255 255 255
0.191744 -0.095844 -0.143438 255 255 255
0.042025 0.127478 -0.020094 255 255 255
-0.190081 0.118726 0.118732 255 255 255
-0.084660 -0.089407 -0.039499 255 255 255
-0.257729 0.089355 0.188536 255 255 255
-0.032184 0.171082 -0.001189 255 255 255
-0.196160 -0.137502 0.187410 255 255 255
-0.220494 0.026955 0.147411 255 255 255
-0.259912 -0.074749 0.198060 255 255 255
-0.250566 -0.044345 0.220667 255 255 255
0.202481 0.036747 -0.014634 255 255 255
-0.216447 0.115130 -0.024011 255 255 255
-0.251992 0.126518 0.286934 255 255 255
-0.199336 -0.057585 -0.009376 255 255 255
0.237667 0.191886 -0.031809 255 255 255
0.154994 0.145051 -0.008690 255 255 255
0.220651 -0.081746 -0.016954 255 255 255
0.130329 0.012659 -0.031621 255 255 255
0.214488 0.092800 -0.012915 255 255 255
0.092820 -0.020792 -0.024877 255 255 255
-0.183883 0.135609 -0.010156 255 255 255
0.098138 0.135986 -0.077704 255 255 255
-0.124270 0.160594 -0.044127 255 255 255
-0.283653 0.033296 0.260707 255 255 255
0.106165 0.196133 -0.030625 255 255 255
-0.186048 0.068295 -0.007686 255 255 255
0.033746 0.097970 -0.106782 255 255 255
-0.085356 0.156846 -0.038709 255 255 255
-0.006063 0.122082 -0.047444 255 255 255
-0.116860 -0.068867 -0.047590 255 255 255
-0.116372 -0.085949 -0.039811 255 255 255
-0.038432 -0.099345 -0.034540 255 255 255
-0.049639 -0.060444 -0.028355 255 255 255
-0.190587 -0.082464 -0.092252 255 255 255
0.042289 -0.194594 -0.008052 255 255 255
0.041292 0.109480 -0.002398 255 255 255
-0.162216 -0.174876 -0.002491 255 255 255
-0.222290 -0.132314 0.199697 255 255 255
0.123833 -0.117644 -0.136492 255 255 255
0.002351 -0.180822 0.030507 255 255 255
-0.086045 0.039680 -0.034360 255 255 255
0.242324 -0.007009 -0.015959 255 255 255
-0.163241 -0.065730 -0.019672 255 255 255
-0.221120 -0.204254 0.265511 255 255 255
-0.055662 -0.161519 -0.080453 255 255 255
-0.075280 0.104794 0.013806 255 255 255
0.065068 -0.098518 -0.018861 255 255 255
-0.256307 0.059087 0.242203 255 255 255
-0.180864 -0.189175 0.231460 255 255 255
0.012871 0.173651 -0.058949 255 255 255
-0.039393 -0.065030 -0.027809 255 255 255
0.110411 0.071055 -0.086712 255 255 255
-0.041659 0.180771 0.046156 255 255 255
0.098069 0.124548 -0.024399 255 255 255
-0.279341 -0.009789 0.260038 255 255 255
-0.145407 0.172280 0.073142 255 255 255
-0.309466 0.034685 0.262492 255 255 255
-0.204400 0.046609 0.040194 255 255 255
-0.180497 0.080173 -0.016955 255 255 255
-0.214052 0.217852 0.265354 255 255 255
-0.006004 0.000325 -0.017728 255 255 255
0.211345 -0.096921 -0.026361 255 255 255
0.001465 0.156293 -0.042804 255 255 255
0.224753 -0.101390 -0.014822 255 255 255
0.236127 -0.124324 -0.024434 255 255 255
0.031877 -0.139214 -0.074084 255 255 255
0.035367 -0.146523 -0.057472 255 255 255
0.006296 0.112507 -0.034429 255 255 255
-0.234781 0.078097 0.217016 255 255 255
-0.301552 0.053890 0.249271 255 255 255
-0.124617 0.023169 -0.022875 255 255 255
0.243923 0.008338 -0.050758 255 255 255
0.040990 -0.127002 -0.022535 255 255 255
-0.180558 0.174642 0.228505 255 255 255
0.189255 -0.216003 -0.011931 255 255 255
-0.089806 -0.151594 -0.035357 255 255 255
0.146273 -0.121753 -0.189209 255 255 255
-0.228219 -0.109113 0.168303 255 255 255
0.214431 -0.118975 -0.201770 255 255 255
0.007121 -0.137062 -0.018308 255 255 255
0.005522 0.073784 -0.030065 255 255 255
-0.068863 0.145170 -0.033876 255 255 255
-0.046488 0.111204 -0.016091 255 255 255
-0.099355 0.157090 -0.011598 255 255 255
0.026011 0.137911 -0.027453 255 255 255
-0.080514 -0.105883 -0.056851 255 255 255
0.085747 -0.139357 -0.018623 255 255 255
-0.211333 -0.161543 0.291720 255 255 255
-0.251134 -0.019148 0.211316 255 255 255
-0.173917 0.186372 0.157577 255 255 255
0.245481 0.139546 -0.043042 255 255 255
0.073519 0.168394 -0.059138 255 255 255
0.136008 -0.078464 -0.014380 255 255 255
0.027385 -0.108176 -0.235942 255 255 255
-0.235502 0.087760 0.193952 255 255 255
-0.189656 0.201303 0.200164 255 255 255
-0.296968 -0.087882 0.283127 255 255 255
-0.068869 0.012895 -0.019042 255 255 255
0.141824 0.099124 -0.224554 255 255 255
-0.039403 0.131953 -0.253484 255 255 255
-0.119715 0.188191 -0.051159 255 255 255
-0.172544 -0.061200 0.024275 255 255 255
0.138325 -0.082072 -0.176602 255 255 255
0.077698 0.191096 -0.021040 255 255 255
-0.207118 0.146990 0.180896 255 255 255
0.112310 0.002697 -0.019680 255 255 255
0.205552 -0.158689 -0.036357 255 255 255
-0.098627 0.112593 -0.025559 255 255 255
-0.080793 -0.164937 -0.036635 255 255 255
-0.171044 0.203270 0.230474 255 255 255
-0.275997 0.159127 0.268564 255 255 255
-0.233292 -0.109850 0.031954 255 255 255
0.242108 0.041018 0.005226 255 255 255
0.066476 0.188706 -0.021778 255 255 255
0.129071 0.114936 -0.104088 255 255 255
-0.237997 -0.086634 0.134800 255 255 255
0.231974 0.026702 -0.074763 255 255 255
-0.162057 -0.130768 -0.039780 255 255 255
-0.271528 0.061095 0.289900 255 255 255
-0.114296 -0.076901 0.047081 255 255 255
0.231955 0.084549 -0.024514 255 255 255
-0.013442 -0.056039 -0.039736 255 255 255
0.236172 0.073491 -0.261263 255 255 255
0.015281 0.190103 -0.041533 255 255 255
0.164617 0.091664 -0.020755 255 255 255
0.035189 -0.102887 -0.212299 255 255 255
-0.202851 0.116354 0.004209 255 255 255
0.002262 0.134970 -0.009756 255 255 255
0.142728 -0.074096 -0.143714 255 255 255
0.154536 0.155215 -0.018302 255 255 255
0.012851 -0.016573 -0.028901 255 255 255
-0.203986 -0.162953 0.147380 255 255 255
-0.150316 0.109614 -0.012707 255 255 255
0.001074 0.022711 -0.032864 255 255 255
-0.132473 -0.136430 0.152386 255 255 255
-0.023171 -0.115827 -0.214308 255 255 255
-0.219399 0.074873 0.064723 255 255 255
-0.191623 0.222168 0.243669 255 255 255
-0.108853 -0.039646 -0.012001 255 255 255
0.113702 -0.173287 -0.082669 255 255 255
0.265415 -0.001802 -0.052652 255 255 255
0.237275 0.005314 -0.040431 255 255 255
-0.093206 -0.083275 -0.017813 255 255 255
-0.053384 0.144327 -0.109267 255 255 255
0.144956 0.061875 -0.028980 255 255 255
0.006652 0.131238 -0.016323 255 255 255
0.021150 0.191081 -0.009153 255 255 255
0.166073 0.130188 -0.108478 255 255 255
-0.086120 0.013504 -0.031350 255 255 255
-0.155485 -0.126442 0.060670 255 255 255
-0.164115 0.106713 0.086984 255 255 255
-0.100575 -0.046448 -0.006951 255 255 255
-0.150351 0.173726 0.176360 255 255 255
-0.110659 -0.030436 -0.025491 255 255 255
0.036354 -0.072093 -0.021154 255 255 255
0.282365 0.100959 -0.020932 255 255 255
-0.266074 0.013746 0.233737 255 255 255
0.176130 0.144834 -0.041562 255 255 255
-0.144749 -0.108954 0.011728 255 255 255
0.174974 -0.023929 -0.014043 255 255 255
0.227500 0.071664 -0.019290 255 255 255
-0.216398 0.209334 0.279956 255 255 255
0.279285 -0.003139 -0.017478 255 255 255
0.133886 0.174947 -0.025454 255 255 255
0.001552 0.143378 -0.231514 255 255 255
-0.118928 -0.144119 -0.040858 255 255 255
0.006657 -0.180037 -0.053874 255 255 255
-0.025811 0.162739 -0.028456 255 255 255
-0.018386 -0.156597 -0.040063 255 255 255
0.159528 0.095317 -0.004190 255 255 255
0.065064 -0.097650 -0.031800 255 255 255
0.152953 0.086077 -0.014381 255 255 255
-0.036896 0.144727 -0.147232 255 255 255
-0.087904 -0.046417 -0.057683 255 255 255
-0.098718 0.004419 -0.035934 255 255 255
-0.041670 -0.163798 -0.021493 255 255 255
-0.302347 -0.013599 0.272273 255 255 255
-0.132874 0.073956 -0.039233 255 255 255
-0.014758 -0.116876 -0.210972 255 255 255
0.027067 0.208305 -0.021725 255 255 255
-0.089426 -0.169813 -0.057478 255 255 255
-0.248659 -0.125346 0.295918 255 255 255
-0.132961 0.193139 0.067943 255 255 255
0.177359 -0.154374 -0.001976 255 255 255
0.130796 -0.160919 -0.017064 255 255 255
-0.024400 -0.106704 -0.271298 255 255 255
0.208687 -0.105387 -0.013100 255 255 255
-0.070184 0.037861 -0.028075 255 255 255
-0.012243 -0.045957 -0.004398 255 255 255
-0.022700 0.067149 -0.029908 255 255 255
0.159765 -0.146349 -0.010691 255 255 255
0.028226 -0.124888 -0.036010 255 255 255
0.267430 -0.039114 -0.044979 255 255 255
0.079381 0.105006 -0.019878 255 255 255
0.182149 -0.090946 -0.079093 255 255 255
-0.072495 -0.139054 0.000487 255 255 255
-0.001834 -0.167086 -0.034217 255 255 255
0.019560 0.127882 -0.175791 255 255 255
-0.079309 0.173430 -0.038795 255 255 255
-0.237186 0.054738 0.046806 255 255 255
0.030239 0.191053 -0.023490 255 255 255
0.060708 0.195122 -0.017917 255 255 255
-0.184453 -0.021753 0.016317 255 255 255
-0.090915 -0.011077 -0.056395 255 255 255
0.180932 -0.051559 -0.015885 255 255 255
0.208510 -0.134939 -0.027012 255 255 255
-0.051972 -0.091331 -0.147412 255 255 255
0.092928 0.119687 -0.016105 255 255 255
0.122871 0.179819 -0.025283 255 255 255
0.128151 0.192523 -0.017171 255 255 255
0.221499 -0.200458 -0.028097 255 255 255
-0.207710 0.006192 -0.021169 255 255 255
-0.053318 0.044782 -0.029864 255 255 255
-0.039113 -0.188243 -0.010746 255 255 255
-0.065095 -0.138181 -0.035529 255 255 255
0.017495 0.072015 -0.009526 255 255 255
0.163876 -0.094500 -0.011875 255 255 255
0.018183 -0.087406 -0.038398 255 255 255
0.023811 0.102285 -0.011965 255 255 255
0.203909 0.051306 -0.026003 255 255 255
-0.075504 0.070603 -0.032192 255 255 255
0.210693 0.079995 -0.017544 255 255 255
0.165783 -0.050989 -0.016608 255 255 255
0.110292 -0.034663 -0.003910 255 255 255
-0.199521 0.138849 0.031655 255 255 255
0.156131 -0.075785 -0.008538 255 255 255
0.188876 0.075804 -0.015462 255 255 255
-0.236244 -0.164452 0.304903 255 255 255
-0.105400 0.110719 -0.043889 255 255 255
0.077560 -0.120699 -0.013122 255 255 255
0.222259 -0.022709 -0.014562 255 255 255
-0.038739 -0.070383 -0.045144 255 255 255
0.232735 -0.180349 -0.035483 255 255 255
0.151758 -0.137632 -0.056900 255 255 255
-0.089597 0.020200 -0.021260 255 255 255
0.074616 -0.033779 -0.132820 255 255 255
-0.226118 0.143536 0.171646 255 255 255
-0.099332 -0.166553 0.041672 255 255 255
-0.056011 -0.160393 -0.017237 255 255 255
0.305917 -0.047892 -0.046179 255 255 255
0.219117 -0.085865 -0.026748 255 255 255
-0.240536 0.104980 0.225792 255 255 255
-0.075927 -0.144319 -0.049447 255 255 255
-0.247243 0.026774 0.233611 255 255 255
-0.098812 0.132676 -0.046234 255 255 255
-0.236375 -0.072622 0.203574 255 255 255
0.202037 -0.043989 -0.004817 255 255 255
0.021779 0.156517 -0.071395 255 255 255
0.117703 0.187098 -0.006068 255 255 255
0.086518 -0.168649 -0.049689 255 255 255
0.134343 0.104806 -0.098188 255 255 255
-0.139462 -0.023204 -0.030664 255 255 255
-0.240692 -0.140415 0.239950 255 255 255
0.082656 -0.193934 -0.035932 255 255 255
0.025527 -0.128890 -0.022821 255 255 255
-0.072230 -0.076783 -0.056103 255 255 255
0.136706 -0.157508 -0.007639 255 255 255
0.163390 0.122521 -0.174782 255 255 255
-0.248866 0.159694 0.306710 255 255 255
-0.149046 0.155392 -0.014754 255 255 255
-0.190523 0.012180 -0.063434 255 255 255
0.171144 0.091871 -0.023365 255 255 255
0.293302 0.034322 -0.011172 255 255 255
0.256566 -0.012914 -0.030070 255 255 255
-0.091382 0.167584 -0.028413 255 255 255
-0.261386 -0.012926 0.203887 255 255 255
0.008548 0.149861 -0.012513 255 255 255
-0.279163 -0.039991 0.298508 255 255 255
0.139276 -0.144373 -0.040393 255 255 255
0.219731 -0.153447 -0.034102 255 255 255
0.040752 0.129671 -0.026811 255 255 255
-0.306534 -0.010493 0.290517 255 255 255
0.184244 0.121848 -0.016579 255 255 255
0.017788 0.137320 -0.026613 255 255 255
0.222878 -0.104877 -0.027324 255 255 255
-0.238440 -0.077570 0.203619 255 255 255
-0.021764 0.177459 0.007075 255 255 255
-0.233840 -0.056828 0.264510 255 255 255
0.211151 -0.136234 -0.016174 255 255 255
-0.211972 -0.122953 0.096764 255 255 255
-0.122491 0.132617 -0.025610 255 255 255
-0.207321 -0.153104 0.210372 255 255 255
0.234669 -0.099880 -0.033403 255 255 255
0.080471 -0.057194 -0.029219 255 255 255
-0.270747 0.201995 0.274013 255 255 255
-0.090715 0.106690 -0.070321 255 255 255
0.077236 0.102132 -0.027952 255 255 255
0.231654 0.076453 -0.027468 255 255 255
-0.262885 -0.181061 0.288007 255 255 255
-0.193248 -0.119951 -0.000240 255 255 255
-0.229956 -0.011819 0.147998 255 255 255
-0.241980 0.178039 0.244961 255 255 255
0.102034 -0.104962 -0.015838 255 255 255
0.182661 0.153576 -0.014040 255 255 255
-0.135162 0.042603 0.086674 255 255 255
0.036883 0.176871 -0.023726 255 255 255
-0.041567 -0.167458 -0.049816 255 255 255
-0.146066 0.025796 -0.020476 255 255 255
-0.001615 -0.161940 -0.034782 255 255 255
-0.019444 0.041098 -0.041303 255 255 255
0.029908 -0.107118 -0.007806 255 255 255
0.232405 0.038596 -0.047748 255 255 255
-0.211550 0.030776 0.133126 255 255 255
0.039304 0.022283 -0.016430 255 255 255
0.147907 -0.154731 -0.011070 255 255 255
-0.011353 0.170969 0.009904 255 255 255
0.182070 -0.030213 0.000602 255 255 255
0.146758 0.036285 -0.007707 255 255 255
0.248950 0.076870 -0.026194 255 255 255
0.191622 0.075838 -0.013160 255 255 255
0.047174 -0.145530 -0.086287 255 255 255
0.062827 0.021036 -0.028659 255 255 255
-0.171415 0.075699 0.010930 255 255 255
-0.087504 -0.138931 -0.026906 255 255 255
-0.045733 -0.091612 -0.032831 255 255 255
0.004983 0.217407 0.006915 255 255 255
0.186933 0.152382 0.002305 255 255 255
0.233260 -0.146659 -0.023226 255 255 255
0.246605 -0.003000 -0.012535 255 255 255
-0.037025 -0.060754 -0.025145 255 255 255
0.242913 0.044777 -0.040328 255 255 255
-0.118765 0.170093 -0.017762 255 255 255
0.001728 -0.023965 -0.024815 255 255 255
0.178360 0.060821 -0.013806 255 255 255
0.016661 0.151269 -0.060561 255 255 255
-0.121994 -0.122782 -0.025419 255 255 255
-0.066276 0.092101 -0.062577 255 255 255
-0.168199 0.036259 0.022712 255 255 255
-0.313891 0.096781 0.245942 255 255 255
-0.010918 -0.055615 -0.021251 255 255 255
-0.064692 0.037860 -0.042988 255 255 255
0.157328 -0.021340 -0.014030 255 255 255
0.109965 -0.114194 -0.078553 255 255 255
0.085197 -0.032142 -0.027065 255 255 255
0.126063 -0.164927 -0.001934 255 255 255
0.146372 -0.173490 -0.040813 255 255 255
-0.206519 -0.090699 0.155689 255 255 255
0.063189 0.186863 -0.041742 255 255 255
0.086003 0.166212 -0.030070 255 255 255
-0.276344 0.073015 0.222583 255 255 255
-0.139159 0.060281 -0.028701 255 255 255
0.275973 -0.038979 -0.027368 255 255 255
-0.291924 -0.118654 0.281877 255 255 255
-0.231434 0.199699 0.250834 255 255 255
-0.145046 0.118819 -0.019717 255 255 255
0.049733 0.037097 -0.024568 255 255 255
0.223116 0.045410 -0.014702 255 255 255
-0.260992 0.112130 0.246663 255 255 255
-0.123135 0.109291 -0.027218 255 255 255
-0.120479 -0.124760 -0.070536 255 255 255
0.248309 0.145497 -0.013589 255 255 255
0.113441 -0.134778 -0.032604 255 255 255
-0.280107 0.054404 0.280792 255 255 255
0.118158 0.032881 -0.017781 255 255 255
0.229890 0.011970 -0.005628 255 255 255
-0.032616 -0.180508 -0.011809 255 255 255
0.097888 0.152794 -0.004149 255 255 255
-0.041120 -0.164020 -0.025383 255 255 255
-0.262435 -0.026896 0.268400 255 255 255
-0.245437 0.115923 0.248252 255 255 255
0.033252 0.084050 -0.051010 255 255 255
-0.145512 -0.022789 -0.046368 255 255 255
-0.178420 -0.099620 -0.022826 255 255 255
0.012918 -0.091525 -0.040904 255 255 255
-0.301000 -0.098672 0.269596 255 255 255
-0.211093 -0.161527 0.064951 255 255 255
-0.177118 0.041693 -0.015842 255 255 255
-0.206091 -0.145371 -0.008770 255 255 255
-0.058022 0.203113 0.020939 255 255 255
0.227056 -0.194839 -0.040840 255 255 255
-0.160840 -0.174991 0.082398 255 255 255
-0.035603 0.198819 0.060201 255 255 255
-0.112877 -0.108491 -0.031576 255 255 255
-0.027920 0.182374 -0.014814 255 255 255
-0.205080 0.205996 0.171488 255 255 255
0.052278 -0.124750 -0.021641 255 255 255
0.108165 -0.044689 -0.022995 255 255 255
0.159065 0.129567 -0.009500 255 255 255
-0.081844 0.100184 0.025492 255 255 255
0.039206 0.189630 -0.036130 255 255 255
-0.164797 0.080590 0.094734 255 255 255
-0.247446 -0.111561 0.264911 255 255 255
0.215892 0.139573 -0.074361 255 255 255
0.130485 -0.070575 -0.017507 255 255 255
0.313645 0.057867 -0.025084 255 255 255
0.189114 -0.127500 -0.076431 255 255 255
-0.087648 0.037129 -0.030731 255 255 255
-0.168544 -0.186825 0.204201 255 255 255
0.084115 -0.051379 -0.053493 255 255 255
-0.193615 0.228388 0.244594 255 255 255
0.189475 0.006870 -0.086889 255 255 255
-0.222991 -0.024233 0.166234 255 255 255
-0.237224 0.154437 0.260966 255 255 255
-0.044313 -0.155998 -0.053664 255 255 255
-0.005540 0.193100 -0.038940 255 255 255
-0.292561 -0.107856 0.284058 255 255 255
-0.286855 0.060012 0.270640 255 255 255
-0.113862 -0.049936 -0.028366 255 255 255
-0.039757 -0.068694 -0.039908 255 255 255
-0.071113 0.153328 -0.024551 255 255 255
0.145160 -0.160205 -0.024214 255 255 255
-0.038375 -0.148581 -0.035795 255 255 255
-0.144153 -0.175704 0.165257 255 255 255
-0.106568 0.089063 -0.054752 255 255 255
-0.023807 0.100119 -0.030041 255 255 255
0.054563 0.118537 -0.048470 255 255 255
-0.069100 -0.138277 -0.054212 255 255 255
0.146742 0.153959 -0.028511 255 255 255
0.257522 -0.034739 -0.024183 255 255 255
0.208257 -0.087264 -0.014505 255 255 255
0.134492 -0.162859 -0.049445 255 255 255
-0.254480 0.056249 0.248935 255 255 255
0.049045 -0.120290 -0.020262 255 255 255
-0.183250 0.106644 0.178632 255 255 255
-0.010942 -0.185483 -0.075324 255 255 255
0.247547 -0.035799 -0.004771 255 255 255
0.155717 0.066182 -0.011838 255 255 255
0.113798 0.152417 -0.011345 255 255 255
0.276364 -0.018899 -0.028919 255 255 255
-0.143210 -0.018948 -0.019484 255 255 255
-0.125444 0.183748 -0.087414 255 255 255
0.222088 0.081890 -0.041070 255 255 255
-0.143475 -0.069587 -0.024148 255 255 255
0.169920 -0.121491 -0.035954 255 255 255
-0.224784 0.045722 0.023044 255 255 255
-0.266160 0.012436 0.284648 255 255 255
-0.054083 -0.144525 0.019070 255 255 255
-0.285429 0.027764 0.272280 255 255 255
-0.120161 0.114413 -0.033843 255 255 255
-0.261073 -0.037568 0.216295 255 255 255
0.105816 0.089721 -0.005097 255 255 255
-0.052329 -0.120904 -0.051517 255 255 255
-0.097444 0.075039 -0.042041 255 255 255
0.089601 0.024900 -0.016574 255 255 255
-0.099061 0.126016 0.023235 255 255 255
-0.194537 0.150221 0.186985 255 255 255
-0.136854 -0.062150 0.002418 255 255 255
-0.110084 -0.133400 -0.058287 255 255 255
0.227259 -0.128049 -0.033238 255 255 255
0.137746 0.147652 -0.016579 255 255 255
0.015277 0.067796 -0.036472 255 255 255
0.262813 -0.162146 -0.249913 255 255 255
-0.116943 -0.133896 -0.047042 255 255 255
-0.038882 -0.052846 -0.029182 255 255 255
0.226158 -0.051295 -0.046839 255 255 255
-0.045594 0.149965 -0.052435 255 255 255
0.021468 -0.049653 -0.014958 255 255 255
0.156125 -0.187768 -0.027149 255 255 255
-0.079171 -0.064154 -0.055793 255 255 255
-0.199432 0.036593 0.007428 255 255 255
-0.203083 0.001400 -0.019535 255 255 255
0.171359 0.022290 -0.012499 255 255 255
0.270728 -0.051659 -0.025103 255 255 255
-0.172563 -0.136832 0.139835 255 255 255
-0.105238 0.142526 -0.010038 255 255 255
0.207072 0.097851 -0.016189 255 255 255
-0.011998 -0.076057 -0.019577 255 255 255
0.167163 0.191725 -0.030634 255 255 255
-0.104698 0.081786 -0.001024 255 255 255
0.196883 0.164946 -0.032638 255 255 255
-0.184320 0.174564 0.157419 255 255 255
0.049746 -0.147502 -0.014163 255 255 255
-0.178774 -0.186317 0.207381 255 255 255
0.050303 -0.077231 -0.025689 255 255 255
0.110190 0.127665 -0.148346 255 255 255
0.120102 -0.124218 -0.021900 255 255 255
-0.256357 0.201883 0.259038 255 255 255
0.215764 0.031344 -0.029451 255 255 255
0.112006 -0.167591 -0.026970 255 255 255
0.019081 0.145627 -0.016683 255 255 255
0.047739 -0.108069 -0.002512 255 255 255
-0.170774 -0.076493 0.011354 255 255 255
0.154226 -0.062347 -0.172020 255 255 255
0.081171 0.192857 -0.010131 255 255 255
-0.272929 -0.093896 0.257427 255 255 255
-0.259541 0.043279 0.179220 255 255 255
0.000027 -0.056983 -0.032521 255 255 255
-0.016940 -0.150498 -0.022508 255 255 255
0.029419 -0.061506 -0.025627 255 255 255
0.113299 -0.043276 -0.020124 255 255 255
-0.227637 -0.101871 0.212298 255 255 255
-0.122567 0.113424 -0.017589 255 255 255
-0.050852 -0.138946 -0.026754 255 255 255
-0.166693 -0.154962 0.005781 255 255 255
0.145928 -0.146899 -0.213519 255 255 255
-0.008140 0.133810 -0.139030 255 255 255
0.182855 0.172353 -0.031545 255 255 255
-0.021469 0.036153 -0.014275 255 255 255
-0.279853 -0.119449 0.291536 255 255 255
0.133822 -0.037965 -0.015668 255 255 255
0.209492 -0.130210 -0.013184 255 255 255
-0.152178 -0.088958 -0.038689 255 255 255
-0.115411 -0.000884 -0.028103 255 255 255
-0.126443 -0.086422 -0.032886 255 255 255
-0.202619 -0.112393 0.021123 255 255 255
0.003576 0.110030 -0.036649 255 255 255
0.215442 0.077304 -0.001479 255 255 255
-0.308589 0.076629 0.287363 255 255 255
-0.180562 0.095335 -0.031742 255 255 255
-0.235386 0.102410 0.238815 255 255 255
0.091819 0.101202 -0.016393 255 255 255
-0.243590 0.046827 0.286339 255 255 255
0.218103 0.028754 -0.023659 255 255 255
-0.256961 -0.050267 0.259900 255 255 255
0.170009 0.171109 -0.015754 255 255 255
-0.109367 0.085191 -0.032054 255 255 255
-0.212276 0.042426 0.178740 255 255 255
0.215689 0.166334 -0.028437 255 255 255
0.254116 -0.078165 -0.039715 255 255 255
-0.210655 0.081410 0.167466 255 255 255
0.175785 0.040935 -0.051296 255 255 255
0.170274 -0.116773 -0.011042 255 255 255
0.227586 0.084587 -0.190160 255 255 255
0.249225 0.051733 -0.049588 255 255 255
-0.229743 -0.107539 0.236489 255 255 255
0.056690 0.098363 -0.021631 255 255 255
0.205865 -0.076231 -0.174923 255 255 255
0.247644 0.115947 -0.019382 255 255 255
0.057905 -0.201161 -0.017281 255 255 255
0.087052 0.187216 -0.025114 255 255 255
-0.100599 -0.084813 0.000460 255 255 255
-0.048517 0.079090 -0.182481 255 255 255
-0.248437 0.203274 0.261550 255 255 255
-0.205176 -0.027384 -0.032822 255 255 255
0.231496 -0.023467 -0.013007 255 255 255
-0.155377 0.009414 -0.044617 255 255 255
-0.143974 -0.137627 -0.013810 255 255 255
0.083726 0.104201 -0.044294 255 255 255
0.111937 -0.145930 -0.011139 255 255 255
0.101531 -0.202014 -0.002764 255 255 255
0.119650 -0.070307 -0.117819 255 255 255
0.100006 -0.130310 -0.014383 255 255 255
0.246140 -0.132295 -0.021280 255 255 255
0.245094 -0.052458 -0.041840 255 255 255
0.009722 0.182673 -0.016706 255 255 255
-0.267997 0.111144 0.272083 255 255 255
-0.267947 -0.031789 0.252033 255 255 255
0.020205 0.193188 -0.030011 255 255 255
-0.020893 0.223778 -0.002267 255 255 255
-0.108285 0.152683 0.005834 255 255 255
0.000609 0.239720 -0.009628 255 255 255
-0.174380 -0.149407 0.158068 255 255 255
-0.213710 -0.019848 0.098766 255 255 255
0.001754 -0.200740 -0.026694 255 255 255
0.304397 -0.007061 -0.017671 255 255 255
-0.065563 0.143175 -0.028999 255 255 255
0.167466 -0.188750 -0.028975 255 255 255
-0.179760 0.114418 -0.002748 255 255 255
-0.103071 -0.109372 -0.021742 255 255 255
-0.058271 -0.040056 -0.028484 255 255 255
0.078980 -0.164182 -0.017717 255 255 255
-0.018775 0.143789 -0.013077 255 255 255
-0.085620 0.113317 -0.079207 255 255 255
0.064535 0.092625 -0.008148 255 255 255
-0.233672 0.066612 0.128371 255 255 255
0.028730 -0.124810 -0.042284 255 255 255
0.088415 -0.151973 -0.004938 255 255 255
-0.045964 -0.112513 -0.024175 255 255 255
-0.162783 0.204360 0.218248 255 255 255
0.151850 0.166924 -0.109223 255 255 255
0.006067 0.173335 -0.038948 255 255 255
-0.143431 -0.032269 -0.084659 255 255 255
-0.138439 0.126327 -0.021266 255 255 255
-0.235244 -0.053984 0.173995 255 255 255
-0.278358 -0.116464 0.294451 255 255 255
-0.224760 0.022436 0.120409 255 255 255
-0.152980 0.103058 -0.011753 255 255 255
0.050554 -0.166344 -0.020632 255 255 255
-0.042553 0.181398 -0.033071 255 255 255
-0.182546 0.164049 0.040811 255 255 255
0.042152 -0.141189 -0.019341 255 255 255
-0.049786 0.126442 -0.042991 255 255 255
-0.188191 -0.055962 -0.026496 255 255 255
0.229450 -0.107765 -0.001404 255 255 255
0.076976 -0.084966 -0.070522 255 255 255
-0.230019 0.112889 0.175464 255 255 255
0.071023 0.095360 -0.020202 255 255 255
0.024814 -0.169375 -0.024807 255 255 255
0.148924 -0.017734 0.021747 255 255 255
-0.189799 -0.222289 0.213982 255 255 255
-0.246036 0.070124 0.220369 255 255 255
0.189063 0.013740 -0.026625 255 255 255
-0.040179 -0.081622 -0.028057 255 255 255
0.099681 -0.120482 -0.018438 255 255 255
-0.166101 0.070127 0.014757 255 255 255
0.021768 -0.018066 -0.022147 255 255 255
0.080661 0.176370 -0.010343 255 255 255
0.201364 -0.102256 -0.039656 255 255 255
0.060865 0.171394 -0.028094 255 255 255
-0.218945 0.174509 0.294828 255 255 255
-0.054094 0.128758 -0.233018 255 255 255
-0.166872 0.067828 0.047642 255 255 255
-0.281060 0.106218 0.298647 255 255 255
0.078963 0.125881 -0.025446 255 255 255
-0.167369 -0.035283 -0.077803 255 255 255
-0.136520 -0.038488 -0.040083 255 255 255
0.225162 0.002686 -0.050937 255 255 255
-0.075981 -0.109890 0.023690 255 255 255
0.038358 0.009252 -0.030567 255 255 255
-0.200841 0.091323 -0.060819 255 255 255
-0.189105 -0.079096 -0.024152 255 255 255
0.063114 -0.120442 -0.023512 255 255 255
0.025974 0.086051 -0.060273 255 255 255
0.178180 -0.092495 -0.182195 255 255 255
0.323616 -0.012603 -0.021411 255 255 255
0.008290 -0.072267 -0.026558 255 255 255
-0.014184 0.170800 -0.008009 255 255 255
0.046381 0.023392 -0.073908 255 255 255
-0.290005 -0.052523 0.290296 255 255 255
-0.057073 0.128095 -0.044663 255 255 255
-0.005367 0.163135 -0.037825 255 255 255
0.069003 0.136878 -0.045120 255 255 255
0.148249 0.011453 -0.004919 255 255 255
-0.199121 0.060454 0.029630 255 255 255
0.016788 -0.052598 -0.042159 255 255 255
0.205538 -0.039314 0.020350 255 255 255
0.223168 0.142809 -0.203075 255 255 255
0.076401 0.184337 -0.117151 255 255 255
-0.127836 -0.080519 -0.029135 255 255 255
0.196877 -0.092703 -0.011042 255 255 255
-0.246854 -0.057425 0.170984 255 255 255
0.101120 -0.167831 -0.018400 255 255 255
-0.028292 -0.108852 -0.195283 255 255 255
0.184593 0.150947 -0.053411 255 255 255
0.197490 -0.043350 -0.002338 255 255 255
-0.240953 0.072275 0.149800 255 255 255
0.203280 -0.124436 -0.030564 255 255 255
0.204796 -0.154241 -0.058947 255 255 255
0.204734 0.124731 -0.033486 255 255 255
-0.139164 0.026035 -0.037120 255 255 255
0.009433 -0.187402 0.017808 255 255 255
0.166186 -0.195984 -0.006875 255 255 255
0.128776 0.131641 -0.036565 255 255 255
-0.238167 0.106344 0.205277 255 255 255
-0.222047 -0.106444 0.157965 255 255 255
-0.174705 0.170428 0.076450 255 255 255
-0.250104 -0.064612 0.205149 255 255 255
-0.071201 0.143144 -0.006099 255 255 255
0.042805 -0.127787 -0.050136 255 255 255
0.142527 0.179485 -0.048575 255 255 255
-0.191676 -0.109575 -0.043464 255 255 255
-0.010349 -0.121881 -0.029764 255 255 255
-0.223554 0.158221 0.176128 255 255 255
-0.098769 -0.153093 0.072478 255 255 255
0.083346 0.182997 -0.020601 255 255 255
-0.127461 0.150093 0.012387 255 255 255
-0.134340 0.184020 0.160449 255 255 255
0.079762 -0.043724 -0.002197 255 255 255
0.200140 -0.125893 -0.056769 255 255 255
-0.249803 -0.083251 0.182222 255 255 255
-0.245647 0.148655 0.297662 255 255 255
-0.077508 -0.130172 -0.055060 255 255 255
-0.091705 -0.110656 -0.063991 255 255 255
0.159763 0.126724 -0.204601 255 255 255
-0.030455 0.081405 -0.005453 255 255 255
0.176390 0.154075 -0.021621 255 255 255
0.213956 0.089044 -0.028426 255 255 255
-0.160706 -0.024280 -0.030790 255 255 255
-0.261288 0.060178 0.201759 255 255 255
0.145755 0.139062 -0.087126 255 255 255
0.046038 0.091902 -0.019605 255 255 255
0.022357 -0.090061 -0.031113 255 255 255
0.254342 0.049593 -0.026542 255 255 255
0.032059 -0.160503 0.000288 255 255 255
0.163134 0.134363 -0.022178 255 255 255
-0.137373 -0.127855 0.038066 255 255 255
-0.267286 0.086926 0.284445 255 255 255
-0.050067 0.133219 -0.040660 255 255 255
-0.201746 -0.124381 0.210939 255 255 255
0.040750 -0.188046 -0.059705 255 255 255
-0.005797 0.003214 -0.022042 255 255 255
0.109636 -0.084641 -0.048942 255 255 255
-0.029801 -0.083516 -0.028468 255 255 255
-0.223537 -0.131226 0.200751 255 255 255
0.148878 0.147323 -0.011947 255 255 255
-0.222826 -0.108046 0.220989 255 255 255
0.143992 0.169203 -0.085608 255 255 255
-0.231958 0.045241 0.169479 255 255 255
-0.117785 0.162968 0.058190 255 255 255
0.037879 0.081301 -0.012301 255 255 255
0.225515 0.131230 -0.011930 255 255 255
-0.094979 0.135420 -0.068180 255 255 255
-0.229871 -0.061389 0.086160 255 255 255
0.037664 0.040189 -0.155036 255 255 255
0.138512 -0.064205 -0.029510 255 255 255
-0.261126 -0.132114 0.265786 255 255 255
0.120445 -0.039042 -0.028007 255 255 255
-0.245996 0.081516 0.269579 255 255 255
-0.253322 0.075496 0.196563 255 255 255
-0.201842 0.199817 0.251593 255 255 255
-0.042354 0.090394 -0.026784 255 255 255
0.087492 0.097373 -0.041457 255 255 255
-0.231314 -0.202759 0.273910 255 255 255
0.204180 0.146259 -0.030355 255 255 255
0.233852 -0.107695 -0.024129 255 255 255
0.231703 -0.135264 -0.003208 255 255 255
0.012567 -0.086897 -0.105724 255 255 255
0.144431 -0.003481 -0.024422 255 255 255
0.161432 0.043600 -0.092712 255 255 255
0.194602 -0.008949 -0.009813 255 255 255
0.237831 -0.097483 -0.023867 255 255 255
-0.099960 0.167727 -0.077577 255 255 255
-0.247688 0.123842 0.251285 255 255 255
-0.247738 0.132445 0.276122 255 255 255
-0.208043 -0.087666 0.139190 255 255 255
0.280431 -0.068253 -0.032337 255 255 255
0.202728 0.191996 -0.013816 255 255 255
0.094710 -0.141175 -0.045830 255 255 255
0.038119 -0.177021 -0.014669 255 255 255
-0.222420 -0.083970 0.216084 255 255 255
-0.244977 0.007566 0.279333 255 255 255
-0.005734 0.043487 -0.141649 255 255 255
0.243826 -0.135860 -0.017390 255 255 255
-0.074742 -0.141567 -0.030014 255 255 255
0.119000 -0.177342 -0.028763 255 255 255
-0.146679 -0.181607 0.253080 255 255 255
-0.233763 0.042802 0.237807 255 255 255
-0.190286 0.086761 -0.054151 255 255 255
0.085504 0.075714 -0.027455 255 255 255
-0.041040 -0.112185 -0.037196 255 255 255
-0.071152 0.055084 -0.232627 255 255 255
-0.052615 -0.076087 0.008425 255 255 255
0.143115 0.222856 -0.013678 255 255 255
0.066094 -0.141794 -0.028409 255 255 255
-0.210363 0.134088 0.158431 255 255 255
0.131905 0.174107 -0.029590 255 255 255
0.221431 -0.071787 -0.186829 255 255 255
-0.066537 0.115608 -0.028054 255 255 255
-0.017304 -0.112905 -0.026552 255 255 255
-0.040196 0.118630 -0.023174 255 255 255
0.303602 0.006246 -0.033402 255 255 255
-0.231977 0.170506 0.241363 255 255 255
0.084363 -0.201396 0.005562 255 255 255
-0.081144 0.042611 -0.021397 255 255 255
-0.191183 -0.161818 0.139094 255 255 255
-0.294744 0.009925 0.259099 255 255 255
-0.243638 0.048077 0.161699 255 255 255
-0.106098 0.026216 -0.015062 255 255 255
0.254960 0.045331 -0.009216 255 255 255
0.170059 -0.184553 -0.045050 255 255 255
-0.172709 -0.103931 -0.000784 255 255 255
0.077023 0.160978 -0.021450 255 255 255
0.266246 -0.131127 -0.038772 255 255 255
-0.072874 -0.148405 -0.050283 255 255 255
0.182882 0.063365 -0.017089 255 255 255
-0.186678 0.164560 0.184421 255 255 255
-0.083372 -0.154353 -0.020158 255 255 255
0.061681 0.000572 -0.034035 255 255 255
-0.200255 -0.204170 0.111328 255 255 255
0.194856 0.096459 -0.019394 255 255 255
0.288567 -0.025343 -0.019663 255 255 255
0.165648 0.102103 -0.177605 255 255 255
0.023517 0.143084 -0.114985 255 255 255
-0.256891 -0.033717 0.244499 255 255 255
0.207706 -0.138134 -0.075228 255 255 255
0.109646 0.127226 -0.243992 255 255 255
-0.264461 0.077613 0.243021 255 255 255
-0.118926 -0.120664 -0.025338 255 255 255
-0.141403 -0.141713 -0.056498 255 255 255
0.158091 -0.102202 -0.005699 255 255 255
0.197009 0.144944 -0.024878 255 255 255
0.030814 0.194083 0.027580 255 255 255
0.150466 0.094557 -0.023446 255 255 255
-0.022250 -0.117795 -0.155544 255 255 255
0.130386 0.155188 -0.047639 255 255 255
0.159760 -0.092439 -0.017538 255 255 255
0.050409 0.171476 -0.025062 255 255 255
-0.187333 0.191451 0.090582 255 255 255
-0.117899 0.122481 -0.030411 255 255 255
0.281619 -0.088937 -0.043824 255 255 255
0.150965 -0.002272 -0.023542 255 255 255
-0.196277 -0.093729 0.016942 255 255 255
0.167392 -0.189895 -0.017374 255 255 255
-0.111287 0.089236 -0.019843 255 255 255
0.252565 -0.093084 -0.023775 255 255 255
0.154078 0.153676 -0.021797 255 255 255
-0.126123 -0.153437 0.025586 255 255 255
-0.095858 0.178852 -0.060340 255 255 255
-0.194909 -0.170001 0.227263 255 255 255
0.185654 -0.049083 -0.023337 255 255 255
0.081064 -0.187956 -0.015943 255 255 255
0.041869 0.164931 -0.018687 255 255 255
0.214259 -0.080887 -0.020702 255 255 255
0.289260 -0.033915 -0.015070 255 255 255
-0.188115 -0.062422 0.041518 255 255 255
0.280168 0.174681 -0.039138 255 255 255
-0.286965 -0.159513 0.297606 255 255 255
-0.114976 0.159489 -0.018046 255 255 255
-0.250476 0.099822 0.200224 255 255 255
-0.113120 0.117594 0.063050 255 255 255
-0.244362 -0.074279 0.211263 255 255 255
0.066020 -0.095201 -0.013293 255 255 255
0.069039 -0.127124 -0.013597 255 255 255
-0.156065 -0.112132 0.049924 255 255 255
0.129104 0.107556 0.001839 255 255 255
-0.014267 -0.154937 -0.034446 255 255 255
-0.219152 -0.034987 0.223188 255 255 255
0.212656 -0.172311 -0.043271 255 255 255
-0.155377 0.148738 -0.009437 255 255 255
-0.147232 0.071915 -0.000077 255 255 255
0.148283 0.060659 -0.011039 255 255 255
0.151458 -0.033556 -0.009929 255 255 255
-0.078471 -0.137448 -0.004857 255 255 255
0.110875 0.206345 0.020211 255 255 255
-0.078867 -0.058071 -0.002002 255 255 255
-0.081992 0.083519 -0.040293 255 255 255
0.095279 0.190450 -0.088813 255 255 255
-0.254670 0.020854 0.155055 255 255 255
0.279450 0.050531 -0.043769 255 255 255
-0.011167 -0.187083 -0.030497 255 255 255
-0.203403 -0.193314 0.269562 255 255 255
-0.109041 0.189516 -0.048577 255 255 255
0.136006 -0.160096 -0.009441 255 255 255
-0.195100 0.156108 0.233472 255 255 255
0.103098 0.195870 -0.001881 255 255 255
-0.076648 0.046069 -0.024464 255 255 255
-0.061362 -0.159363 -0.012186 255 255 255
0.146683 -0.093023 -0.028619 255 255 255
-0.261833 0.158487 0.246743 255 255 255
-0.193734 0.184345 0.231386 255 255 255
0.091928 -0.124584 -0.019314 255 255 255
